0,1443,1443,1435,1435,1438,1445,1446,1450,1449,1449,1446,1446,1446,1443,1444,1443,1443,1439,1436,1442,1441,1442,1442,1442,1441,1440,1436,1434,1433,1438,1441,1438,1438,1436,1440,1441,1440,1439,1439,1441,1440,1441,1440,1441,1439,1441,1440,1442,1442,1441,1441,1441,1442,1439,1439,1440,1439,1437,1436,1436,1436,1435,1437,1439,1438,1438,1437,1440,1438,1438,1434,1436,1436,1436,1435,1437,1439,1437,1436,1435,1433,1435,1436,1438,1435,1434,1434,1436,1437,1436,1434,1432,1431,1432,1434,1436,1437,1436,1435,1435,1437,1439,1438,1435,1436,1435,1436,1433,1434,1432,1433,1435,1436,1436,1438,1437,1436,1436,1437,1438,1437,1437,1436,1437,1437,1435,1433,1435,1437,1439,1439,1439,1439,1440,1439,1440,1439,1438,1437,1437,1437,1437,1437,1437,1439,1439,1439,1440,1439,1438,1437,1437,1440,1444,1451,1457,1466,1485,0,0,0,0,0,988,952,936,924,914,908,904,899,894,888,884,882,881,880,878,878,877,876,873,872,870,870,868,867,867,867,867,866,865,864,864,863,862,862,862,864,865,866,865,862,861,861,863,864,866,866,867,866,866,867,868,866,865,867,869,868,869,869,873,875,876,875,875,876,877,877,878,877,876,877,882,885,885,885,887,887,891,890,894,899,909,914,917,921,928,933,936,940,946,955,962,975,0,0,1175,0,1421,1434,1439,1442,1441,1440,1440,1443,1444,1445,1442,1442,1442,1445,1445,1444,1442,1443,1444,1443,1442,1442,1444,1445,1445,1445,1446,1447,1446,1447,1446,1447,1447,1448,1448,1446,1446,1444,1446,1446,1448,1447,1448,1448,1448,1447,1446,1448,1449,1449,1450,1451,1450,1449,1449,1450,1450,1449,1448,1447,1447,1447,1448,1448,1449,1451,1449,1449,1447,1449,1451,1452,1452,1450,1452,1451,1451,1450,1450,1450,1449,1451,1450,1450,1450,1451,1451,1450,1450,1450,1451,1450,1449,1450,1452,1454,1454,1454,1453,1452,1453,1453,1453,1452,1451,1451,1451,1451,1450,1450,1449,1449,1449,1448,1448,1448,1447,1447,1447,1446,1446,1447,1447,1447,1444,1444,1443,1443,1441,1441,1440,1439,1438,1439,1439,1438,1436,1435,1435,1434,1431,1426,1423,1419,1414,1410,1403,1383,1362,1355,1349,1355,1342,1324,1302,1296,1292,1296,1295,1298,1297,1298,1298,1298,1299,1298,1298,1295,1294,1293,1291,1289,1287,1283,1280,1278,1278,1278,1277,1279,1278,1279,1277,1277,1276,1274,1270,1268,1265,1262,1259,1255,1253,1249,1246,1238,1218,1192,1179,1176,1175,1176,1182,1197,1207,1201,1190,1186,1181,1175,1170,1164,1161,1156,1153,1146,1142,1140,1137,1132,1126,1123,1117,1112,1105,1093,1062,1040,1031,1031,1031,1029,1027,1024,1026,1036,1047,1047,1032,1027,1024,1021,1018,1013,1007,1004,1002,997,991,988,986,0
0,1447,1445,1436,1436,1439,1447,1448,1452,1452,1454,1454,1454,1455,1448,1448,1444,1445,1441,1438,1440,1441,1440,1444,1446,1446,1440,1437,1435,1436,1439,1442,1439,1442,1441,1444,1443,1442,1440,1441,1443,1444,1444,1443,1444,1440,1443,1443,1446,1445,1442,1443,1442,1443,1440,1440,1440,1440,1438,1438,1440,1441,1440,1440,1441,1438,1438,1438,1440,1439,1437,1436,1436,1437,1437,1436,1438,1441,1439,1438,1437,1438,1438,1439,1440,1438,1438,1437,1438,1438,1437,1437,1436,1435,1435,1435,1437,1436,1437,1437,1438,1437,1438,1438,1437,1438,1437,1438,1434,1435,1433,1435,1436,1438,1439,1438,1438,1437,1437,1438,1439,1439,1439,1438,1440,1441,1439,1436,1437,1440,1442,1441,1442,1442,1442,1441,1441,1441,1440,1439,1439,1440,1439,1440,1439,1440,1441,1441,1442,1441,1441,1440,1440,1443,1446,1453,1459,1469,1489,1528,0,0,0,0,976,945,933,923,916,909,906,901,895,889,884,883,882,881,879,879,878,877,874,873,872,872,870,868,867,867,867,866,865,864,864,864,864,864,864,866,867,867,866,865,864,864,865,865,866,867,867,866,868,869,870,868,867,868,869,870,871,871,874,877,878,877,878,879,880,881,881,878,878,878,881,883,886,887,888,889,892,894,896,902,909,915,917,921,928,936,939,942,946,957,965,974,0,0,0,0,1418,1433,1439,1441,1441,1442,1442,1445,1445,1445,1442,1442,1443,1447,1447,1446,1445,1446,1448,1447,1446,1446,1448,1446,1446,1445,1447,1447,1447,1447,1448,1450,1451,1450,1449,1447,1447,1444,1447,1448,1450,1450,1450,1450,1449,1449,1449,1451,1452,1452,1452,1451,1451,1450,1451,1452,1453,1452,1451,1449,1450,1450,1451,1451,1452,1453,1453,1451,1450,1451,1452,1453,1454,1452,1453,1452,1454,1454,1453,1452,1452,1454,1453,1454,1452,1452,1452,1452,1454,1454,1454,1453,1452,1452,1454,1456,1455,1454,1453,1454,1454,1453,1453,1452,1453,1453,1453,1453,1453,1453,1451,1451,1451,1451,1451,1450,1449,1449,1449,1449,1449,1449,1447,1448,1445,1445,1444,1445,1444,1444,1443,1442,1441,1442,1442,1440,1439,1438,1438,1436,1433,1427,1424,1420,1418,1414,1405,1385,1366,1357,1351,1355,1344,1326,1306,1298,1295,1297,1297,1299,1299,1299,1299,1299,1300,1299,1297,1295,1296,1294,1290,1287,1287,1285,1283,1282,1281,1281,1279,1281,1281,1283,1281,1279,1277,1275,1272,1270,1265,1262,1259,1256,1255,1252,1248,1239,1218,1193,1181,1177,1176,1177,1183,1199,1207,1201,1192,1190,1184,1179,1170,1165,1159,1157,1154,1148,1145,1143,1140,1136,1127,1121,1114,1111,1105,1092,1061,1042,1033,1032,1033,1031,1029,1026,1027,1038,1047,1049,1035,1030,1027,1024,1018,1015,1009,1008,1003,999,993,991,990,0
0,1448,1444,1437,1430,1435,1439,1439,1443,1448,1452,1451,1448,1450,1445,1447,1446,1445,1441,1439,1441,1443,1443,1445,1445,1445,1440,1437,1435,1437,1438,1440,1436,1440,1443,1448,1446,1442,1438,1439,1440,1441,1439,1439,1440,1439,1441,1442,1444,1442,1439,1438,1440,1442,1441,1439,1439,1439,1440,1440,1440,1439,1439,1438,1438,1435,1434,1436,1439,1440,1439,1437,1436,1434,1434,1435,1436,1438,1438,1438,1438,1438,1438,1436,1436,1435,1436,1437,1438,1437,1437,1438,1437,1436,1434,1435,1436,1436,1436,1438,1437,1436,1436,1438,1437,1437,1434,1434,1433,1435,1435,1435,1436,1438,1438,1437,1436,1434,1435,1435,1437,1438,1437,1435,1437,1438,1438,1437,1437,1439,1441,1439,1439,1438,1439,1439,1439,1439,1439,1439,1439,1439,1439,1438,1439,1440,1440,1440,1440,1440,1441,1441,1442,1446,1450,1457,1465,1478,1506,0,0,0,0,0,957,935,925,918,912,906,901,897,892,886,884,883,882,881,879,878,875,873,870,869,870,870,868,866,865,866,864,864,863,862,861,861,862,863,865,866,866,865,863,862,862,862,863,863,864,865,866,865,866,867,867,867,865,865,865,868,871,872,872,871,874,875,876,876,877,877,878,876,877,878,880,880,882,883,885,885,889,890,894,898,904,910,912,917,923,932,936,939,945,957,963,970,0,0,0,0,1409,1429,1434,1437,1438,1440,1441,1443,1444,1444,1443,1443,1444,1445,1445,1444,1444,1445,1445,1445,1446,1446,1448,1446,1445,1444,1445,1445,1445,1447,1447,1450,1450,1446,1445,1444,1446,1444,1446,1448,1449,1448,1447,1448,1447,1446,1447,1449,1451,1451,1450,1450,1449,1448,1448,1451,1451,1451,1451,1450,1451,1450,1450,1450,1452,1453,1452,1451,1451,1452,1451,1451,1451,1450,1450,1450,1451,1452,1452,1452,1453,1455,1454,1454,1452,1451,1451,1451,1452,1452,1452,1452,1451,1451,1452,1454,1453,1453,1452,1453,1453,1452,1452,1451,1451,1452,1452,1452,1451,1451,1450,1450,1451,1451,1450,1449,1449,1449,1448,1448,1447,1446,1446,1446,1445,1446,1445,1445,1443,1443,1441,1441,1440,1440,1439,1439,1438,1437,1436,1433,1431,1425,1422,1419,1417,1413,1404,1382,1365,1356,1350,1351,1341,1324,1305,1298,1296,1296,1295,1296,1297,1297,1297,1297,1298,1298,1296,1294,1294,1293,1290,1288,1286,1282,1281,1280,1281,1280,1279,1280,1280,1282,1279,1277,1275,1275,1272,1269,1264,1261,1257,1254,1253,1249,1246,1237,1217,1191,1179,1175,1175,1175,1182,1198,1205,1199,1190,1188,1183,1180,1171,1165,1158,1156,1152,1148,1143,1142,1138,1133,1125,1117,1111,1108,1103,1087,1058,1039,1030,1029,1031,1030,1029,1025,1025,1035,1047,1050,1035,1031,1027,1023,1016,1012,1006,1006,1003,998,992,989,987,0
0,1453,1451,1441,1436,1437,1442,1444,1449,1450,1448,1446,1445,1447,1446,1448,1448,1446,1445,1442,1443,1445,1447,1452,1448,1446,1439,1437,1440,1445,1445,1441,1435,1437,1443,1448,1448,1442,1439,1440,1442,1445,1442,1441,1442,1443,1443,1443,1442,1442,1440,1440,1440,1441,1440,1440,1442,1443,1443,1443,1443,1441,1440,1438,1438,1436,1436,1438,1441,1442,1440,1440,1438,1438,1438,1439,1440,1440,1440,1439,1441,1441,1439,1437,1438,1439,1440,1439,1439,1439,1439,1440,1439,1438,1437,1439,1439,1439,1439,1440,1440,1438,1438,1440,1439,1438,1436,1436,1436,1438,1438,1438,1438,1438,1439,1438,1437,1438,1438,1438,1438,1439,1440,1439,1439,1440,1441,1441,1441,1443,1443,1442,1441,1440,1440,1440,1441,1441,1442,1441,1442,1443,1442,1441,1440,1441,1442,1443,1442,1441,1443,1445,1447,1450,1455,1462,1475,1498,0,0,0,0,0,977,947,932,922,916,912,908,904,897,892,888,887,887,887,885,882,880,876,873,871,870,871,871,869,867,867,868,866,867,865,864,862,861,864,865,867,866,867,865,865,863,862,862,863,863,862,862,865,866,868,868,869,869,867,866,866,869,873,874,872,873,875,877,877,878,879,880,879,877,878,880,881,882,883,884,886,887,891,892,895,902,906,913,914,921,926,935,935,939,945,958,964,967,0,0,0,0,1408,1429,1436,1440,1441,1443,1443,1444,1444,1444,1444,1444,1445,1446,1446,1447,1448,1450,1450,1448,1449,1448,1449,1447,1447,1446,1446,1446,1446,1447,1449,1451,1451,1449,1448,1448,1449,1447,1447,1449,1451,1452,1451,1452,1450,1449,1449,1451,1452,1454,1454,1453,1451,1450,1450,1451,1452,1452,1453,1453,1454,1452,1452,1452,1453,1454,1455,1454,1454,1453,1454,1454,1453,1452,1452,1451,1454,1454,1455,1454,1454,1456,1455,1456,1454,1454,1453,1454,1454,1454,1453,1452,1453,1454,1454,1454,1453,1455,1454,1456,1455,1455,1453,1453,1453,1454,1454,1455,1455,1454,1452,1451,1453,1453,1453,1451,1451,1452,1451,1450,1448,1447,1447,1447,1446,1447,1447,1447,1446,1445,1444,1444,1444,1442,1441,1440,1440,1439,1439,1436,1433,1428,1424,1420,1417,1414,1405,1384,1369,1359,1353,1352,1344,1326,1309,1301,1301,1300,1299,1298,1299,1299,1298,1298,1299,1300,1297,1296,1295,1295,1294,1291,1289,1286,1284,1284,1285,1284,1282,1282,1284,1285,1282,1279,1276,1275,1273,1270,1265,1263,1260,1257,1254,1250,1246,1238,1217,1192,1180,1177,1177,1178,1185,1200,1207,1201,1192,1188,1185,1182,1172,1166,1159,1157,1151,1147,1146,1145,1140,1132,1124,1118,1113,1110,1105,1088,1058,1040,1032,1033,1034,1033,1032,1028,1027,1038,1052,1052,1037,1032,1026,1022,1014,1012,1008,1009,1005,1003,997,993,989,0
0,1452,1444,1438,1437,1441,1441,1441,1444,1445,1441,1437,1436,1440,1444,1444,1446,1445,1447,1445,1444,1442,1445,1450,1450,1447,1441,1438,1437,1441,1444,1442,1439,1437,1439,1444,1445,1443,1438,1437,1439,1442,1442,1441,1439,1440,1439,1440,1438,1441,1439,1439,1437,1437,1438,1438,1441,1443,1443,1442,1443,1441,1440,1437,1437,1435,1437,1439,1442,1443,1443,1441,1439,1438,1440,1441,1440,1438,1438,1438,1440,1439,1438,1435,1436,1436,1436,1435,1436,1437,1439,1440,1440,1438,1437,1438,1438,1439,1440,1439,1438,1438,1440,1440,1439,1437,1437,1437,1438,1439,1439,1438,1437,1437,1438,1437,1437,1437,1438,1437,1437,1438,1438,1438,1437,1437,1438,1438,1439,1441,1441,1439,1437,1437,1438,1439,1441,1441,1441,1440,1442,1442,1441,1440,1440,1441,1442,1442,1442,1441,1442,1444,1448,1453,1458,1467,1481,1514,0,0,0,0,0,960,941,930,919,912,908,905,901,894,890,886,885,885,886,883,880,877,874,871,868,867,868,869,867,866,865,866,866,866,864,861,859,858,861,864,866,865,866,865,864,861,860,860,862,862,862,862,864,865,866,866,867,866,865,863,864,868,872,872,869,869,872,874,874,874,876,878,878,878,877,878,880,881,883,881,883,884,888,890,894,900,903,909,912,919,925,933,931,935,940,952,959,962,0,0,0,1364,1400,1424,1433,1439,1440,1442,1443,1444,1444,1444,1445,1446,1446,1446,1445,1446,1447,1448,1448,1446,1447,1447,1447,1445,1446,1448,1448,1447,1446,1446,1447,1447,1447,1447,1448,1448,1449,1446,1446,1448,1449,1450,1449,1450,1449,1448,1448,1449,1451,1452,1452,1452,1449,1450,1449,1451,1452,1452,1452,1452,1452,1451,1451,1452,1453,1453,1452,1452,1452,1453,1454,1453,1452,1451,1451,1451,1452,1451,1451,1451,1451,1453,1453,1454,1453,1454,1453,1454,1452,1453,1451,1451,1451,1451,1450,1450,1451,1454,1454,1454,1454,1453,1453,1452,1452,1453,1453,1454,1454,1452,1451,1449,1451,1451,1452,1451,1451,1451,1450,1449,1447,1446,1445,1446,1446,1446,1446,1445,1444,1443,1443,1443,1442,1440,1440,1439,1439,1438,1436,1434,1431,1428,1424,1418,1414,1411,1403,1383,1367,1357,1352,1351,1342,1324,1306,1299,1298,1299,1298,1297,1297,1298,1297,1298,1298,1298,1297,1296,1296,1297,1295,1293,1289,1284,1282,1282,1285,1283,1281,1281,1282,1284,1281,1279,1276,1275,1272,1268,1265,1262,1260,1256,1252,1249,1245,1236,1214,1189,1178,1176,1176,1178,1185,1201,1207,1200,1189,1185,1183,1180,1173,1168,1162,1158,1151,1147,1144,1143,1136,1130,1123,1121,1117,1111,1103,1083,1055,1038,1032,1032,1032,1031,1031,1028,1028,1040,1052,1051,1035,1030,1025,1021,1014,1011,1006,1004,1000,1000,996,992,985,0
0,1457,1446,1444,1448,1450,1451,1445,1445,1439,1441,1437,1438,1444,1448,1446,1446,1446,1448,1446,1445,1443,1446,1449,1451,1449,1447,1444,1445,1444,1446,1447,1445,1440,1437,1439,1441,1442,1439,1440,1443,1445,1447,1446,1444,1443,1442,1442,1440,1444,1443,1442,1441,1441,1441,1439,1440,1442,1443,1442,1443,1444,1444,1442,1442,1441,1442,1442,1443,1441,1441,1440,1440,1441,1443,1443,1442,1440,1440,1440,1440,1440,1439,1440,1440,1441,1439,1438,1437,1438,1440,1441,1441,1441,1441,1441,1440,1441,1441,1440,1439,1440,1442,1440,1439,1440,1441,1441,1442,1441,1441,1439,1440,1440,1441,1440,1440,1439,1440,1440,1440,1442,1443,1443,1441,1441,1441,1441,1441,1442,1441,1441,1439,1439,1439,1441,1443,1443,1442,1443,1444,1443,1441,1441,1442,1443,1444,1444,1443,1442,1444,1446,1449,1452,1458,1469,1485,0,0,0,0,0,0,953,935,929,919,912,908,905,902,895,891,887,886,886,885,882,881,879,877,873,869,868,869,870,868,867,866,867,866,867,865,863,860,860,863,865,865,865,865,865,864,861,860,861,862,863,863,864,866,866,867,868,869,868,866,865,866,870,873,873,871,871,873,874,875,877,879,881,879,878,877,877,879,881,883,882,884,886,890,893,896,901,907,913,916,922,926,932,932,936,941,951,959,964,977,0,0,1349,1397,1422,1433,1440,1442,1444,1445,1446,1446,1445,1446,1448,1449,1448,1446,1447,1448,1451,1450,1450,1449,1448,1447,1447,1446,1447,1449,1449,1448,1447,1448,1447,1449,1449,1452,1452,1452,1450,1449,1451,1451,1450,1450,1451,1452,1451,1452,1453,1454,1454,1454,1454,1453,1453,1452,1454,1454,1456,1455,1455,1455,1455,1455,1454,1455,1454,1455,1454,1454,1453,1455,1456,1456,1455,1455,1455,1455,1454,1453,1454,1454,1455,1455,1456,1455,1455,1455,1456,1457,1457,1456,1454,1454,1454,1453,1454,1455,1457,1457,1456,1456,1456,1456,1455,1455,1454,1455,1456,1457,1455,1455,1452,1453,1453,1455,1454,1453,1451,1451,1451,1451,1450,1448,1448,1446,1447,1447,1447,1447,1444,1445,1443,1444,1442,1443,1442,1441,1439,1438,1438,1435,1431,1426,1421,1416,1414,1406,1384,1369,1359,1355,1352,1344,1326,1308,1301,1300,1302,1301,1301,1300,1300,1300,1300,1300,1300,1299,1299,1299,1298,1297,1295,1293,1286,1284,1283,1286,1286,1283,1282,1282,1284,1282,1280,1277,1275,1272,1269,1267,1265,1263,1260,1255,1251,1247,1238,1214,1191,1181,1179,1177,1180,1187,1205,1208,1201,1190,1186,1182,1180,1175,1171,1167,1161,1154,1150,1147,1145,1138,1132,1126,1123,1119,1115,1106,1084,1056,1040,1035,1035,1035,1032,1031,1028,1029,1042,1054,1053,1037,1031,1027,1023,1017,1013,1008,1005,1002,1002,999,993,987,0
0,1451,1446,1444,1447,1446,1447,1439,1437,1438,1443,1441,1439,1444,1452,1452,1448,1445,1443,1443,1443,1441,1443,1443,1448,1447,1447,1448,1449,1449,1449,1448,1445,1441,1438,1439,1439,1439,1439,1440,1442,1443,1446,1446,1443,1439,1436,1438,1439,1443,1443,1442,1441,1443,1441,1439,1437,1440,1442,1443,1442,1442,1443,1443,1443,1440,1441,1441,1441,1440,1439,1438,1438,1439,1441,1440,1439,1439,1440,1440,1439,1438,1438,1438,1439,1438,1435,1435,1436,1439,1439,1440,1440,1440,1439,1438,1437,1437,1437,1438,1438,1438,1439,1437,1438,1439,1441,1439,1441,1440,1441,1438,1439,1438,1438,1436,1437,1437,1438,1439,1440,1440,1440,1440,1440,1441,1440,1439,1438,1439,1438,1437,1436,1435,1436,1438,1441,1441,1441,1442,1442,1440,1439,1439,1440,1442,1443,1443,1442,1441,1444,1446,1450,1454,1464,1475,1490,0,0,0,0,0,969,944,930,923,916,910,906,901,898,894,890,886,884,884,882,879,876,875,874,871,868,868,868,868,867,866,864,864,864,865,863,862,859,858,858,861,863,865,865,865,862,860,859,860,863,864,864,864,865,866,865,865,865,865,863,863,865,868,869,869,868,867,869,869,872,873,875,876,876,876,877,877,877,879,881,882,883,885,887,891,894,898,903,909,914,918,920,923,927,931,936,944,955,964,973,0,0,1330,1389,1415,1428,1435,1439,1443,1444,1444,1444,1444,1446,1447,1447,1446,1446,1445,1445,1446,1446,1449,1448,1447,1444,1446,1446,1447,1448,1448,1448,1447,1449,1447,1446,1447,1449,1451,1451,1451,1451,1450,1450,1448,1449,1450,1453,1452,1453,1453,1453,1451,1451,1452,1451,1451,1451,1454,1454,1455,1453,1454,1453,1454,1454,1455,1455,1454,1453,1452,1453,1453,1454,1454,1454,1453,1454,1453,1453,1452,1452,1453,1454,1455,1454,1454,1454,1454,1455,1455,1456,1455,1455,1453,1453,1453,1453,1453,1453,1454,1455,1454,1454,1454,1455,1454,1454,1454,1455,1454,1454,1453,1453,1452,1452,1451,1452,1452,1452,1449,1450,1449,1451,1449,1448,1447,1446,1446,1447,1447,1446,1444,1443,1442,1442,1442,1442,1440,1438,1438,1437,1437,1431,1428,1423,1419,1415,1413,1405,1380,1367,1358,1354,1349,1340,1322,1306,1298,1297,1298,1298,1299,1298,1298,1298,1297,1297,1297,1298,1299,1298,1297,1295,1294,1290,1284,1281,1279,1283,1282,1280,1278,1278,1282,1279,1278,1275,1274,1271,1268,1265,1263,1260,1257,1252,1248,1245,1235,1211,1189,1178,1177,1174,1178,1186,1205,1207,1199,1189,1185,1180,1175,1171,1168,1166,1160,1154,1150,1147,1143,1136,1131,1125,1121,1117,1113,1106,1082,1055,1038,1033,1033,1033,1030,1028,1026,1027,1040,1053,1052,1034,1028,1025,1021,1017,1012,1007,1003,1001,1000,996,991,986,0
0,1443,1445,1447,1449,1446,1447,1439,1441,1440,1448,1448,1445,1447,1452,1457,1450,1447,1439,1441,1442,1446,1447,1447,1449,1447,1445,1446,1449,1452,1452,1450,1449,1445,1444,1443,1443,1441,1442,1442,1444,1445,1447,1446,1444,1441,1441,1442,1443,1444,1443,1444,1444,1446,1444,1443,1442,1444,1443,1443,1443,1442,1444,1444,1445,1442,1443,1442,1443,1441,1441,1439,1439,1441,1442,1440,1440,1442,1444,1443,1440,1439,1440,1441,1441,1441,1437,1437,1437,1441,1439,1440,1440,1441,1439,1440,1438,1438,1437,1439,1440,1440,1440,1439,1440,1441,1442,1441,1441,1441,1442,1440,1441,1440,1440,1438,1438,1439,1440,1441,1442,1443,1442,1441,1442,1445,1444,1442,1440,1441,1441,1441,1439,1438,1438,1440,1442,1442,1443,1443,1443,1442,1441,1441,1442,1444,1445,1445,1444,1445,1446,1450,1452,1457,1468,1482,1501,0,0,0,0,0,961,943,928,922,915,911,906,901,899,895,890,887,885,885,884,880,877,876,876,873,870,870,869,870,868,867,866,867,865,866,864,865,862,861,861,863,865,867,866,866,863,863,861,863,865,866,865,866,867,868,866,865,865,865,866,865,866,866,868,870,871,869,869,869,871,874,876,876,876,876,878,879,880,880,881,883,884,887,889,892,894,901,906,912,914,919,922,925,931,933,938,944,955,966,974,0,0,1302,1382,1411,1427,1435,1440,1443,1445,1445,1443,1444,1446,1447,1448,1448,1447,1446,1444,1446,1447,1451,1449,1448,1446,1448,1448,1449,1449,1450,1451,1452,1452,1451,1449,1448,1447,1450,1452,1453,1453,1453,1453,1450,1452,1454,1455,1455,1455,1454,1453,1453,1454,1455,1454,1453,1452,1454,1454,1456,1454,1456,1455,1456,1455,1456,1457,1456,1455,1456,1457,1456,1456,1455,1456,1455,1457,1456,1456,1455,1456,1456,1458,1458,1458,1457,1457,1456,1456,1456,1458,1457,1456,1456,1457,1458,1457,1457,1457,1457,1457,1456,1457,1456,1456,1456,1458,1457,1457,1455,1455,1456,1455,1454,1453,1453,1454,1454,1454,1451,1452,1451,1452,1451,1451,1449,1448,1448,1448,1448,1449,1446,1446,1444,1444,1444,1443,1441,1439,1439,1439,1439,1433,1429,1425,1423,1419,1416,1406,1380,1369,1359,1357,1350,1342,1323,1309,1300,1298,1298,1300,1301,1301,1300,1301,1299,1298,1299,1300,1300,1298,1297,1295,1295,1292,1286,1284,1282,1286,1284,1281,1279,1280,1283,1280,1279,1277,1276,1274,1271,1267,1264,1261,1258,1254,1250,1248,1238,1212,1190,1179,1178,1175,1180,1189,1208,1209,1202,1192,1187,1181,1176,1173,1170,1166,1160,1155,1152,1150,1147,1140,1133,1128,1122,1118,1116,1110,1086,1057,1041,1036,1035,1035,1032,1028,1026,1028,1043,1055,1054,1036,1029,1024,1022,1018,1014,1009,1007,1005,1001,997,992,990,0
0,1446,1449,1449,1448,1444,1442,1439,1438,1441,1443,1446,1441,1441,1446,1453,1452,1446,1441,1438,1440,1441,1444,1444,1446,1444,1442,1440,1446,1451,1452,1449,1446,1445,1445,1445,1445,1443,1443,1441,1441,1442,1445,1446,1444,1442,1439,1440,1441,1442,1443,1443,1442,1444,1442,1444,1443,1445,1443,1443,1443,1441,1443,1442,1442,1440,1440,1440,1441,1442,1442,1440,1438,1438,1438,1437,1438,1441,1443,1443,1440,1438,1437,1438,1439,1437,1435,1435,1436,1437,1437,1439,1440,1440,1439,1439,1437,1437,1436,1437,1438,1439,1440,1439,1440,1440,1441,1439,1439,1441,1441,1441,1440,1440,1439,1437,1437,1438,1439,1440,1441,1441,1439,1439,1439,1441,1441,1440,1440,1441,1442,1441,1440,1440,1440,1440,1441,1441,1442,1442,1442,1442,1441,1442,1442,1443,1444,1446,1446,1446,1446,1448,1450,1459,1472,1490,1519,0,0,0,0,980,956,938,925,918,912,909,905,900,896,892,887,883,882,882,882,879,874,874,874,874,871,871,868,868,865,865,864,865,864,864,862,862,860,859,859,861,863,865,865,865,862,862,860,861,863,865,864,864,864,867,866,864,863,863,864,863,864,864,865,867,867,867,867,866,867,869,873,874,875,874,876,877,878,879,879,881,882,885,886,889,892,898,901,906,909,914,919,922,929,932,937,940,950,961,971,0,0,0,1375,1402,1423,1435,1439,1443,1442,1443,1441,1443,1444,1446,1445,1446,1445,1446,1444,1446,1446,1448,1446,1446,1445,1447,1449,1450,1448,1448,1449,1451,1451,1450,1448,1447,1446,1448,1449,1451,1452,1452,1452,1450,1451,1453,1454,1454,1453,1453,1453,1452,1451,1452,1452,1452,1451,1453,1453,1454,1453,1454,1453,1453,1453,1454,1455,1455,1455,1455,1457,1456,1456,1454,1454,1454,1455,1455,1454,1454,1455,1455,1455,1456,1457,1457,1456,1454,1454,1454,1455,1455,1454,1455,1456,1456,1455,1454,1454,1455,1455,1454,1453,1454,1454,1455,1456,1457,1456,1454,1453,1454,1454,1453,1452,1452,1453,1453,1452,1450,1450,1450,1451,1449,1449,1448,1448,1447,1447,1446,1447,1445,1445,1444,1444,1443,1441,1439,1438,1437,1437,1438,1432,1429,1424,1421,1416,1414,1403,1377,1366,1356,1355,1348,1340,1322,1308,1299,1296,1296,1298,1297,1297,1299,1301,1298,1296,1296,1298,1298,1296,1295,1293,1292,1289,1284,1283,1283,1285,1283,1281,1281,1280,1281,1278,1277,1275,1275,1273,1271,1266,1263,1260,1258,1253,1250,1248,1238,1210,1188,1177,1176,1174,1179,1189,1207,1209,1200,1190,1185,1179,1176,1173,1169,1164,1158,1154,1151,1149,1145,1138,1130,1127,1122,1118,1114,1106,1081,1053,1039,1035,1034,1033,1031,1028,1027,1030,1044,1052,1050,1033,1030,1025,1023,1019,1014,1010,1007,1004,999,993,991,989,0
0,1455,1455,1454,1454,1451,1444,1440,1440,1444,1446,1444,1443,1446,1447,1452,1452,1452,1446,1446,1445,1446,1446,1446,1446,1446,1444,1445,1445,1449,1449,1450,1449,1449,1447,1447,1446,1446,1445,1443,1442,1444,1446,1446,1445,1445,1445,1445,1443,1445,1444,1445,1444,1445,1445,1447,1445,1445,1444,1443,1444,1444,1446,1443,1443,1441,1442,1442,1445,1446,1445,1442,1440,1440,1440,1440,1441,1442,1442,1441,1439,1439,1439,1441,1441,1440,1439,1439,1439,1439,1438,1441,1442,1442,1441,1441,1441,1441,1440,1440,1439,1441,1442,1441,1441,1441,1442,1441,1441,1442,1441,1441,1442,1444,1444,1441,1440,1441,1442,1442,1443,1443,1443,1442,1443,1444,1444,1443,1442,1445,1446,1445,1443,1443,1444,1443,1443,1442,1442,1443,1444,1444,1443,1444,1444,1444,1445,1447,1448,1448,1448,1449,1452,1459,1474,1496,0,0,0,0,0,973,948,934,924,919,913,910,906,901,897,891,886,882,882,882,881,879,876,877,876,877,873,873,870,868,865,866,866,866,866,866,864,863,861,861,863,865,867,868,867,867,865,864,863,863,864,864,864,865,866,866,865,865,865,865,866,866,866,865,866,868,869,871,871,869,869,870,873,876,876,876,876,877,879,880,881,882,883,885,886,888,892,899,903,907,908,913,919,923,930,934,938,940,948,960,970,0,0,0,1371,1396,1422,1436,1441,1444,1444,1445,1444,1445,1446,1448,1446,1446,1445,1447,1445,1448,1446,1446,1445,1446,1448,1449,1450,1448,1448,1448,1450,1450,1450,1450,1450,1449,1447,1449,1451,1452,1453,1453,1454,1453,1453,1454,1455,1454,1455,1455,1455,1454,1454,1455,1456,1455,1454,1453,1453,1453,1454,1455,1456,1454,1454,1455,1457,1458,1458,1458,1458,1458,1457,1456,1456,1457,1458,1459,1457,1457,1458,1458,1458,1458,1458,1460,1459,1458,1456,1457,1457,1458,1457,1459,1459,1458,1458,1457,1458,1458,1458,1456,1456,1457,1458,1457,1458,1458,1458,1457,1456,1456,1455,1454,1454,1454,1456,1455,1454,1452,1452,1453,1453,1451,1451,1449,1449,1448,1447,1446,1448,1447,1449,1448,1446,1444,1443,1441,1440,1439,1439,1439,1434,1431,1427,1424,1419,1416,1404,1376,1366,1355,1356,1348,1341,1322,1310,1301,1300,1299,1301,1300,1300,1301,1304,1302,1301,1300,1300,1300,1299,1297,1294,1292,1289,1286,1286,1287,1288,1286,1284,1286,1284,1283,1280,1279,1277,1276,1275,1273,1269,1266,1263,1260,1256,1254,1251,1240,1211,1189,1179,1178,1177,1183,1193,1210,1210,1200,1192,1188,1183,1180,1177,1171,1165,1159,1155,1151,1150,1145,1139,1132,1128,1124,1119,1115,1105,1079,1053,1041,1038,1037,1034,1032,1030,1030,1033,1046,1053,1049,1036,1033,1028,1024,1021,1018,1014,1011,1007,1002,995,993,991,0
0,1462,1459,1457,1459,1458,1446,1441,1443,1446,1445,1442,1443,1446,1446,1447,1448,1450,1449,1448,1448,1447,1446,1444,1442,1443,1444,1446,1447,1451,1450,1449,1445,1446,1448,1448,1447,1445,1445,1442,1442,1441,1444,1444,1443,1443,1443,1444,1443,1444,1444,1445,1444,1444,1444,1444,1442,1442,1441,1442,1444,1443,1445,1443,1443,1441,1441,1441,1441,1441,1440,1441,1440,1439,1439,1441,1441,1441,1440,1439,1439,1438,1438,1439,1440,1441,1440,1439,1440,1438,1438,1439,1442,1441,1441,1440,1442,1441,1441,1440,1439,1440,1440,1440,1438,1437,1438,1439,1440,1441,1441,1441,1442,1443,1442,1439,1439,1440,1441,1441,1441,1442,1442,1440,1441,1442,1443,1441,1441,1444,1444,1443,1442,1443,1444,1443,1443,1442,1442,1442,1443,1443,1444,1444,1444,1443,1444,1443,1444,1444,1445,1446,1450,1458,1476,0,0,0,0,0,0,960,938,926,918,914,910,907,903,898,895,888,884,882,881,881,880,878,876,875,874,873,872,872,869,865,862,863,866,866,865,864,862,860,858,859,862,866,867,866,864,864,862,861,859,859,860,861,862,863,863,863,863,864,864,864,863,864,864,866,865,867,867,870,870,869,867,867,870,873,874,875,875,877,878,878,880,881,882,883,884,887,892,897,901,905,907,910,914,917,923,929,935,938,946,957,967,0,0,0,1365,1391,1415,1432,1439,1443,1442,1442,1442,1444,1445,1446,1446,1445,1444,1446,1445,1446,1444,1444,1444,1444,1446,1447,1447,1445,1446,1447,1450,1450,1449,1450,1449,1450,1449,1450,1450,1451,1451,1452,1452,1453,1452,1453,1454,1454,1454,1455,1456,1454,1454,1453,1454,1453,1453,1452,1452,1452,1453,1454,1455,1454,1454,1455,1457,1458,1458,1456,1455,1455,1454,1455,1455,1457,1455,1456,1455,1457,1456,1457,1456,1456,1457,1458,1458,1457,1456,1456,1456,1457,1455,1456,1455,1456,1457,1457,1457,1458,1458,1457,1456,1457,1457,1456,1455,1456,1456,1456,1456,1455,1454,1454,1454,1454,1455,1454,1453,1452,1452,1453,1452,1451,1449,1449,1449,1447,1446,1444,1445,1445,1447,1447,1446,1444,1442,1440,1439,1439,1439,1438,1432,1429,1424,1422,1417,1414,1401,1372,1362,1354,1357,1346,1336,1317,1305,1299,1298,1298,1299,1298,1298,1299,1302,1301,1299,1297,1297,1297,1297,1296,1293,1290,1287,1284,1284,1285,1286,1284,1284,1285,1284,1281,1279,1278,1276,1274,1273,1270,1268,1265,1261,1259,1255,1254,1250,1237,1208,1187,1176,1175,1175,1182,1193,1209,1209,1199,1192,1187,1183,1179,1174,1169,1165,1159,1154,1149,1146,1140,1136,1131,1128,1124,1118,1112,1102,1075,1049,1038,1036,1036,1034,1034,1031,1029,1032,1045,1052,1047,1033,1030,1026,1024,1020,1017,1014,1012,1007,1003,995,993,989,0
0,1451,1451,1455,1462,1455,1449,1446,1449,1449,1446,1445,1449,1451,1450,1448,1447,1451,1450,1451,1449,1450,1450,1451,1448,1447,1445,1447,1447,1448,1449,1448,1448,1449,1451,1451,1450,1447,1449,1447,1447,1445,1444,1442,1443,1445,1447,1448,1446,1446,1447,1447,1447,1446,1447,1445,1443,1442,1443,1443,1445,1446,1447,1446,1446,1444,1444,1444,1443,1443,1442,1444,1444,1443,1443,1445,1445,1444,1441,1440,1440,1441,1441,1441,1442,1442,1442,1442,1442,1441,1440,1440,1442,1440,1440,1441,1443,1444,1443,1443,1442,1443,1442,1441,1438,1439,1440,1440,1441,1442,1444,1443,1446,1445,1445,1442,1442,1442,1442,1442,1443,1445,1445,1442,1442,1444,1445,1444,1444,1446,1447,1444,1443,1443,1445,1444,1444,1443,1443,1444,1445,1445,1445,1446,1447,1446,1446,1445,1446,1446,1447,1450,1453,1457,1469,0,0,0,0,0,980,952,933,925,919,915,911,907,902,898,895,889,887,885,885,883,881,878,877,876,875,873,871,871,870,867,865,865,867,867,866,865,865,864,861,861,864,868,869,867,865,865,865,863,861,862,862,863,864,865,865,863,863,864,865,866,865,865,866,868,869,869,869,871,872,873,870,870,871,874,875,876,877,878,878,879,881,882,883,884,886,889,893,899,904,908,909,912,914,916,921,926,933,939,946,955,964,977,0,0,1371,1393,1413,1432,1442,1446,1446,1446,1445,1445,1445,1446,1447,1447,1446,1446,1446,1445,1445,1444,1446,1447,1448,1448,1448,1446,1447,1449,1452,1451,1451,1451,1451,1451,1450,1451,1452,1453,1453,1454,1455,1455,1454,1455,1457,1457,1457,1457,1456,1456,1457,1458,1458,1457,1457,1455,1454,1454,1455,1455,1456,1455,1456,1458,1461,1462,1460,1459,1457,1456,1455,1455,1457,1459,1458,1458,1458,1459,1460,1459,1458,1458,1458,1459,1460,1460,1459,1459,1459,1459,1458,1458,1457,1458,1460,1461,1460,1460,1459,1460,1460,1460,1459,1457,1456,1457,1458,1458,1458,1457,1456,1456,1457,1457,1456,1455,1454,1454,1455,1455,1453,1453,1451,1451,1451,1450,1449,1447,1448,1447,1447,1447,1447,1445,1444,1442,1441,1441,1441,1440,1434,1430,1426,1423,1420,1416,1404,1374,1365,1356,1360,1347,1338,1316,1306,1300,1300,1300,1300,1301,1300,1300,1302,1301,1302,1299,1299,1299,1300,1298,1294,1292,1289,1286,1286,1287,1289,1286,1285,1283,1285,1284,1282,1280,1279,1277,1274,1272,1269,1265,1261,1259,1256,1254,1250,1237,1206,1186,1174,1174,1173,1185,1195,1212,1210,1202,1195,1191,1185,1179,1175,1170,1167,1160,1155,1150,1146,1142,1137,1134,1130,1126,1120,1116,1105,1077,1051,1040,1037,1038,1037,1036,1033,1030,1035,1049,1057,1049,1035,1031,1028,1026,1021,1018,1014,1015,1011,1007,999,996,992,0
0,1451,1450,1451,1454,1451,1446,1446,1449,1445,1444,1445,1450,1446,1444,1443,1445,1447,1446,1444,1446,1451,1454,1452,1448,1447,1447,1445,1445,1443,1447,1446,1445,1444,1447,1449,1449,1448,1449,1446,1445,1442,1442,1443,1444,1446,1447,1448,1446,1445,1447,1447,1446,1444,1446,1443,1444,1443,1445,1443,1445,1445,1445,1444,1445,1444,1443,1442,1440,1440,1441,1443,1442,1441,1440,1442,1442,1442,1441,1441,1440,1440,1440,1441,1442,1442,1441,1441,1440,1438,1439,1440,1442,1441,1440,1441,1441,1441,1440,1441,1442,1443,1441,1440,1438,1439,1440,1439,1439,1441,1444,1444,1446,1445,1445,1442,1441,1440,1439,1440,1441,1444,1443,1441,1439,1441,1443,1444,1443,1444,1445,1443,1442,1443,1444,1444,1442,1442,1442,1443,1442,1443,1444,1446,1447,1446,1445,1444,1445,1445,1447,1450,1452,1456,1463,0,0,0,0,0,969,942,927,919,915,911,906,902,898,894,891,887,886,885,884,883,880,878,876,875,875,872,870,868,868,865,864,863,864,864,863,862,862,862,861,861,861,864,864,863,862,862,862,861,860,860,860,863,864,863,862,861,862,863,864,865,864,865,866,869,868,868,867,868,870,871,869,869,870,872,872,874,876,876,875,875,876,877,878,881,884,889,891,896,901,905,908,909,911,912,916,921,929,934,941,948,959,0,0,0,1378,1396,1409,1428,1439,1445,1446,1445,1444,1443,1442,1444,1444,1446,1446,1446,1446,1445,1444,1445,1446,1446,1446,1446,1447,1447,1447,1449,1451,1451,1451,1450,1450,1450,1449,1451,1451,1452,1452,1452,1453,1452,1452,1453,1456,1457,1455,1454,1454,1454,1455,1456,1457,1456,1456,1455,1454,1454,1454,1454,1454,1454,1456,1458,1459,1459,1458,1457,1456,1456,1455,1456,1457,1458,1457,1455,1456,1457,1459,1458,1457,1457,1457,1456,1456,1456,1458,1457,1457,1458,1458,1458,1457,1457,1458,1459,1459,1459,1459,1459,1459,1458,1457,1456,1456,1456,1457,1457,1456,1456,1455,1455,1455,1455,1455,1454,1454,1453,1453,1453,1451,1451,1449,1450,1451,1450,1449,1448,1447,1446,1445,1445,1445,1444,1443,1442,1441,1439,1439,1437,1433,1428,1425,1422,1419,1414,1401,1373,1365,1356,1361,1347,1337,1313,1304,1298,1299,1299,1300,1301,1299,1298,1298,1299,1299,1297,1296,1296,1297,1297,1295,1293,1287,1284,1284,1285,1287,1284,1283,1282,1285,1283,1281,1280,1278,1275,1274,1272,1269,1263,1259,1257,1255,1252,1248,1234,1202,1184,1172,1173,1172,1184,1194,1211,1209,1200,1194,1189,1184,1178,1174,1170,1167,1160,1154,1149,1143,1138,1135,1133,1131,1125,1120,1114,1103,1074,1050,1039,1036,1037,1036,1034,1032,1029,1036,1049,1058,1046,1033,1030,1029,1027,1020,1017,1013,1012,1008,1004,998,993,989,0
0,1452,1450,1446,1448,1448,1450,1451,1450,1448,1444,1447,1448,1446,1446,1446,1449,1446,1448,1447,1449,1451,1455,1452,1449,1447,1449,1447,1448,1444,1446,1447,1447,1446,1446,1447,1448,1448,1449,1448,1447,1446,1446,1446,1448,1450,1450,1448,1447,1447,1451,1450,1450,1447,1449,1447,1448,1445,1447,1446,1449,1448,1448,1447,1446,1444,1442,1443,1443,1443,1443,1445,1445,1444,1444,1443,1443,1444,1443,1442,1441,1443,1445,1445,1444,1442,1442,1442,1441,1441,1442,1442,1443,1442,1441,1440,1440,1443,1443,1443,1442,1443,1443,1443,1442,1443,1443,1442,1441,1442,1444,1446,1448,1448,1447,1445,1444,1443,1443,1444,1444,1446,1446,1445,1443,1444,1445,1446,1446,1446,1447,1445,1444,1444,1445,1445,1443,1442,1442,1444,1444,1444,1446,1448,1448,1447,1448,1448,1448,1448,1451,1455,1456,1460,1462,0,0,0,0,0,962,937,926,918,916,912,907,901,897,894,891,888,887,885,884,884,881,878,875,876,876,874,870,868,868,866,866,865,866,864,862,863,864,865,863,863,862,864,864,865,865,864,865,864,864,863,864,865,866,865,863,864,864,865,865,867,867,867,867,869,870,870,869,870,872,872,870,871,871,873,873,873,876,876,876,875,877,878,880,883,886,889,891,897,902,906,908,909,910,911,916,921,928,932,935,941,953,969,0,0,0,1397,1411,1430,1442,1449,1450,1448,1446,1445,1445,1444,1444,1446,1447,1447,1448,1447,1448,1448,1450,1449,1449,1448,1449,1449,1448,1449,1451,1452,1452,1452,1452,1451,1451,1451,1453,1454,1455,1455,1456,1454,1453,1453,1456,1457,1457,1456,1456,1456,1457,1457,1458,1459,1458,1457,1456,1456,1456,1457,1457,1457,1457,1459,1460,1461,1460,1458,1458,1458,1458,1458,1459,1459,1460,1458,1460,1461,1462,1460,1459,1458,1458,1457,1458,1459,1460,1459,1460,1460,1462,1462,1461,1460,1461,1462,1463,1461,1460,1460,1461,1460,1459,1458,1459,1460,1461,1459,1458,1457,1457,1457,1455,1456,1456,1456,1456,1454,1454,1455,1453,1453,1451,1452,1451,1452,1453,1452,1450,1449,1448,1446,1446,1445,1446,1443,1442,1441,1441,1439,1435,1430,1427,1424,1421,1415,1403,1375,1368,1358,1363,1349,1339,1314,1306,1300,1303,1302,1305,1305,1303,1301,1300,1302,1301,1300,1299,1299,1301,1299,1296,1294,1291,1288,1286,1287,1288,1285,1285,1285,1287,1285,1283,1282,1280,1277,1275,1273,1270,1266,1262,1260,1257,1253,1249,1235,1203,1185,1174,1175,1174,1186,1197,1213,1210,1200,1194,1190,1185,1177,1174,1171,1169,1160,1155,1152,1147,1140,1137,1134,1132,1125,1121,1115,1103,1074,1052,1041,1039,1039,1037,1035,1032,1031,1037,1049,1056,1046,1034,1030,1029,1028,1024,1020,1016,1013,1011,1006,998,993,990,0
0,1454,1451,1446,1444,1450,1451,1451,1445,1446,1446,1447,1445,1442,1444,1445,1449,1446,1449,1448,1446,1448,1449,1449,1445,1445,1449,1449,1449,1445,1447,1448,1448,1444,1444,1443,1445,1445,1446,1444,1443,1444,1446,1447,1447,1449,1450,1447,1446,1445,1447,1447,1448,1447,1447,1447,1449,1446,1447,1446,1447,1444,1444,1443,1442,1442,1439,1440,1440,1442,1442,1443,1443,1443,1443,1443,1441,1442,1441,1440,1439,1442,1443,1443,1441,1439,1438,1440,1440,1442,1442,1442,1442,1441,1440,1439,1439,1441,1442,1441,1441,1440,1441,1442,1443,1444,1444,1441,1440,1440,1442,1443,1444,1445,1445,1443,1441,1441,1442,1445,1444,1445,1444,1444,1444,1444,1445,1444,1444,1445,1446,1444,1443,1444,1445,1444,1443,1442,1443,1443,1443,1442,1445,1445,1446,1445,1447,1447,1447,1447,1453,1458,1462,1467,1469,0,0,0,0,979,949,933,920,915,911,908,903,898,894,890,888,886,884,883,882,882,880,877,874,875,875,872,868,866,865,864,864,864,863,861,859,860,860,861,861,861,861,861,861,862,862,862,861,861,862,862,863,864,863,862,861,862,863,863,864,865,866,867,866,868,869,869,868,869,869,868,868,869,869,869,870,872,874,875,875,873,875,876,878,881,884,888,890,895,899,902,904,906,907,907,911,916,924,929,931,935,945,0,0,0,1366,1392,1408,1426,1439,1447,1447,1446,1444,1443,1444,1445,1446,1447,1447,1447,1447,1446,1446,1447,1449,1448,1447,1447,1447,1448,1449,1449,1449,1450,1451,1451,1451,1450,1449,1450,1452,1452,1454,1455,1455,1452,1453,1452,1454,1454,1455,1455,1456,1456,1457,1456,1457,1456,1454,1454,1455,1456,1456,1456,1457,1457,1457,1458,1459,1459,1458,1458,1458,1458,1458,1459,1460,1459,1459,1458,1458,1458,1458,1458,1457,1458,1456,1457,1456,1457,1457,1457,1458,1460,1461,1461,1459,1459,1459,1460,1460,1460,1459,1459,1460,1460,1459,1458,1459,1460,1460,1460,1457,1457,1456,1456,1455,1455,1456,1456,1455,1453,1454,1455,1454,1453,1451,1450,1449,1450,1449,1449,1449,1449,1448,1447,1446,1445,1445,1443,1442,1440,1439,1436,1431,1428,1426,1424,1418,1412,1399,1373,1366,1357,1364,1350,1337,1311,1303,1299,1303,1303,1304,1304,1301,1300,1299,1302,1300,1298,1297,1297,1298,1297,1296,1294,1290,1286,1285,1285,1286,1282,1283,1283,1285,1284,1281,1280,1278,1276,1273,1272,1270,1265,1261,1258,1255,1253,1249,1235,1200,1183,1176,1177,1176,1185,1196,1213,1209,1198,1192,1187,1183,1174,1172,1171,1168,1160,1155,1153,1147,1138,1135,1132,1131,1123,1120,1113,1102,1071,1049,1037,1038,1037,1036,1032,1029,1028,1036,1046,1054,1043,1033,1029,1028,1026,1023,1019,1014,1009,1006,1002,996,990,987,0
0,1449,1449,1449,1447,1451,1451,1452,1445,1449,1451,1452,1446,1444,1450,1453,1453,1450,1451,1452,1449,1449,1449,1452,1450,1448,1450,1452,1452,1449,1448,1451,1452,1448,1446,1445,1448,1447,1445,1444,1446,1448,1448,1447,1448,1449,1451,1450,1449,1448,1446,1447,1449,1451,1449,1449,1447,1447,1447,1448,1447,1446,1446,1446,1444,1444,1443,1444,1444,1445,1445,1445,1445,1446,1447,1446,1444,1444,1443,1443,1441,1443,1445,1444,1441,1440,1438,1441,1442,1445,1444,1444,1445,1444,1443,1442,1442,1443,1445,1443,1442,1441,1444,1444,1446,1445,1446,1444,1444,1443,1443,1443,1445,1447,1445,1443,1442,1443,1445,1447,1447,1446,1447,1448,1448,1447,1445,1444,1445,1446,1446,1445,1445,1445,1446,1445,1446,1446,1447,1445,1446,1445,1447,1445,1445,1446,1450,1450,1450,1450,1456,1464,1472,1480,1483,0,0,0,0,973,944,928,920,917,913,910,904,899,895,892,891,888,885,882,882,883,881,879,876,876,874,872,869,867,866,864,866,867,867,864,862,863,863,862,862,862,863,863,863,863,862,863,863,863,863,863,864,864,862,862,861,863,863,865,865,866,866,866,866,868,868,868,869,870,870,869,869,870,871,872,872,873,875,877,877,874,877,880,884,885,886,889,892,896,899,901,902,904,905,906,910,917,924,929,931,936,945,966,0,0,1346,1387,1409,1428,1442,1449,1448,1447,1446,1446,1447,1447,1449,1449,1448,1447,1447,1447,1448,1449,1451,1451,1449,1449,1449,1451,1452,1453,1452,1453,1453,1455,1454,1452,1452,1453,1455,1454,1456,1456,1457,1455,1456,1456,1456,1456,1458,1459,1459,1459,1459,1457,1457,1456,1456,1457,1458,1460,1459,1459,1459,1459,1459,1460,1460,1461,1461,1461,1461,1460,1461,1461,1462,1462,1462,1461,1461,1460,1460,1461,1460,1460,1460,1460,1459,1460,1461,1461,1461,1462,1462,1462,1461,1461,1461,1462,1462,1461,1461,1462,1462,1462,1462,1460,1461,1462,1463,1463,1460,1458,1458,1459,1459,1458,1457,1456,1457,1457,1458,1458,1457,1455,1455,1453,1452,1451,1450,1450,1451,1451,1450,1448,1448,1447,1446,1444,1442,1442,1441,1439,1434,1431,1427,1424,1419,1413,1399,1373,1366,1357,1365,1351,1339,1311,1303,1300,1306,1305,1305,1305,1303,1303,1302,1304,1303,1302,1302,1301,1301,1299,1298,1297,1292,1288,1286,1285,1285,1283,1283,1284,1286,1286,1284,1282,1280,1278,1274,1272,1270,1268,1264,1259,1257,1255,1252,1236,1200,1185,1178,1181,1178,1187,1199,1214,1211,1201,1195,1190,1183,1173,1170,1171,1168,1161,1157,1156,1150,1142,1137,1134,1132,1125,1120,1115,1103,1072,1049,1038,1038,1038,1036,1033,1031,1031,1038,1050,1056,1046,1036,1031,1030,1028,1026,1019,1015,1010,1006,1002,996,992,988,0
0,1451,1450,1449,1448,1450,1446,1447,1445,1448,1452,1452,1448,1446,1450,1455,1453,1450,1447,1451,1449,1450,1446,1448,1450,1451,1453,1452,1452,1448,1447,1447,1451,1450,1448,1445,1446,1446,1443,1442,1443,1445,1446,1445,1446,1447,1449,1449,1450,1447,1445,1446,1448,1449,1446,1445,1444,1445,1446,1447,1446,1445,1444,1443,1442,1445,1445,1444,1442,1444,1444,1444,1443,1444,1444,1444,1443,1443,1443,1443,1440,1442,1441,1443,1441,1441,1440,1442,1443,1443,1443,1444,1444,1444,1443,1442,1442,1443,1443,1442,1443,1442,1444,1442,1444,1444,1445,1443,1444,1443,1442,1442,1442,1444,1444,1444,1442,1441,1442,1443,1444,1444,1444,1446,1446,1445,1443,1443,1443,1444,1445,1444,1445,1443,1445,1445,1446,1445,1446,1445,1445,1444,1444,1444,1445,1447,1450,1450,1451,1453,1458,1465,1476,1492,0,0,0,0,0,960,934,923,916,916,911,907,901,896,893,889,888,885,882,880,880,878,878,877,876,874,871,868,867,866,864,862,863,864,864,862,861,862,860,859,859,861,861,861,860,859,858,859,859,860,861,861,863,862,860,860,859,860,860,864,865,866,864,865,864,866,866,867,867,866,866,866,868,868,868,869,870,872,874,874,874,872,875,878,882,882,884,888,891,893,894,895,897,900,901,901,904,910,917,924,929,936,946,963,0,0,1297,1378,1404,1423,1437,1444,1445,1445,1446,1445,1445,1446,1448,1449,1449,1448,1447,1446,1447,1448,1449,1448,1447,1447,1447,1449,1450,1452,1451,1453,1453,1455,1454,1453,1453,1454,1455,1454,1454,1453,1454,1455,1456,1456,1456,1455,1456,1457,1457,1457,1458,1457,1456,1455,1455,1455,1457,1459,1458,1456,1456,1457,1458,1458,1459,1459,1460,1460,1460,1459,1461,1461,1461,1460,1459,1458,1458,1457,1458,1458,1458,1460,1460,1460,1459,1459,1461,1462,1461,1461,1460,1461,1460,1460,1459,1460,1460,1460,1459,1460,1460,1460,1460,1459,1459,1460,1460,1461,1460,1458,1457,1457,1458,1457,1457,1456,1456,1455,1455,1454,1454,1453,1454,1454,1453,1450,1449,1449,1448,1448,1448,1448,1447,1446,1444,1443,1442,1441,1440,1438,1433,1430,1426,1422,1417,1411,1399,1371,1364,1355,1363,1351,1338,1309,1302,1299,1305,1303,1303,1303,1302,1302,1301,1303,1302,1301,1300,1298,1297,1297,1297,1298,1289,1286,1283,1284,1283,1282,1282,1283,1285,1285,1283,1281,1280,1278,1275,1272,1269,1266,1261,1259,1257,1256,1250,1234,1197,1182,1176,1180,1178,1187,1199,1213,1209,1200,1193,1189,1181,1173,1170,1169,1166,1161,1156,1154,1148,1141,1136,1133,1130,1123,1118,1112,1101,1070,1047,1036,1035,1036,1034,1031,1028,1028,1038,1051,1056,1044,1035,1032,1030,1027,1023,1018,1014,1007,1001,997,995,991,987,0
0,1458,1457,1454,1453,1450,1450,1451,1450,1449,1450,1452,1449,1450,1449,1454,1450,1452,1451,1454,1454,1453,1449,1449,1452,1454,1454,1451,1452,1451,1449,1449,1452,1453,1453,1450,1450,1449,1447,1445,1446,1445,1447,1447,1450,1448,1451,1452,1452,1448,1447,1448,1449,1449,1448,1447,1446,1447,1447,1449,1447,1448,1446,1446,1445,1447,1446,1446,1445,1447,1445,1443,1443,1445,1446,1445,1445,1447,1446,1446,1444,1444,1442,1445,1445,1446,1444,1445,1445,1445,1444,1444,1445,1445,1444,1444,1444,1444,1445,1444,1445,1446,1446,1445,1445,1444,1445,1444,1445,1446,1446,1446,1444,1445,1445,1446,1446,1446,1445,1445,1446,1447,1447,1447,1448,1448,1446,1445,1444,1444,1445,1445,1446,1445,1447,1446,1448,1447,1447,1447,1447,1446,1446,1446,1447,1448,1451,1453,1454,1456,1462,1469,1482,1503,0,0,0,0,0,956,930,920,916,916,912,906,900,896,895,892,889,885,883,882,882,880,879,877,876,874,872,869,869,869,868,866,866,866,866,865,865,865,862,860,860,863,863,863,862,861,860,861,862,862,862,862,863,863,862,861,861,862,863,866,868,867,865,866,866,867,867,868,868,867,867,868,869,870,869,871,871,874,876,877,876,876,878,882,882,884,885,889,891,892,892,893,897,900,900,901,904,910,917,922,928,936,948,963,0,0,0,0,1406,1426,1438,1444,1447,1448,1449,1447,1447,1447,1448,1449,1449,1450,1449,1449,1451,1453,1454,1451,1450,1449,1449,1449,1450,1453,1454,1454,1453,1454,1454,1456,1457,1456,1457,1455,1454,1453,1455,1456,1457,1457,1457,1456,1457,1459,1458,1458,1458,1457,1457,1456,1458,1458,1460,1460,1460,1459,1458,1458,1459,1460,1461,1461,1462,1461,1461,1460,1462,1462,1463,1462,1462,1461,1461,1461,1461,1461,1461,1462,1462,1460,1460,1462,1465,1465,1463,1463,1463,1464,1463,1461,1460,1461,1463,1462,1461,1461,1462,1462,1461,1462,1463,1463,1462,1461,1461,1460,1460,1460,1461,1459,1458,1457,1458,1457,1456,1455,1455,1455,1457,1457,1457,1454,1453,1452,1451,1449,1449,1449,1449,1448,1446,1444,1442,1442,1442,1442,1437,1432,1427,1424,1421,1415,1400,1374,1366,1357,1365,1354,1340,1312,1305,1302,1306,1303,1305,1304,1305,1306,1304,1305,1305,1304,1302,1299,1299,1299,1299,1299,1288,1286,1283,1287,1285,1284,1285,1287,1289,1287,1285,1283,1282,1280,1278,1274,1271,1267,1263,1261,1259,1257,1251,1234,1198,1182,1177,1181,1181,1190,1203,1214,1211,1201,1196,1189,1181,1175,1171,1170,1167,1165,1161,1157,1150,1145,1138,1135,1132,1125,1119,1113,1102,1072,1049,1039,1038,1039,1037,1036,1033,1032,1041,1052,1054,1042,1034,1032,1029,1027,1025,1022,1017,1012,1004,1000,996,993,991,0
0,1458,1458,1456,1452,1452,1453,1454,1449,1450,1446,1452,1451,1456,1449,1449,1446,1451,1452,1454,1452,1453,1449,1449,1449,1449,1451,1450,1451,1450,1449,1447,1449,1450,1453,1450,1449,1446,1446,1445,1444,1444,1445,1447,1448,1446,1448,1447,1447,1446,1446,1447,1447,1447,1446,1445,1445,1446,1447,1449,1448,1449,1446,1445,1444,1445,1444,1444,1443,1444,1442,1441,1442,1445,1445,1443,1443,1444,1443,1443,1442,1443,1442,1445,1446,1446,1444,1444,1445,1444,1444,1444,1443,1443,1442,1443,1442,1442,1442,1442,1442,1444,1444,1443,1443,1443,1443,1441,1444,1446,1446,1445,1442,1444,1445,1447,1446,1445,1442,1443,1444,1446,1447,1446,1447,1447,1446,1446,1445,1445,1445,1445,1445,1444,1446,1447,1448,1448,1448,1448,1447,1446,1445,1446,1446,1448,1449,1451,1454,1457,1465,1471,1484,0,0,0,0,0,978,942,926,917,914,910,907,903,898,895,894,890,886,883,882,883,882,880,878,874,873,871,870,867,866,866,866,865,865,864,864,863,863,862,859,858,858,861,862,862,861,861,860,860,860,860,860,860,860,859,860,860,860,860,862,865,867,866,864,863,865,866,868,868,869,867,866,867,866,868,869,870,871,871,873,874,876,877,877,880,878,881,883,888,889,889,890,891,895,899,898,898,901,907,914,917,923,930,942,955,0,0,0,0,1403,1425,1436,1444,1447,1448,1449,1448,1448,1447,1448,1449,1448,1450,1449,1450,1450,1452,1453,1450,1450,1449,1449,1448,1449,1451,1452,1453,1452,1453,1454,1456,1456,1455,1455,1455,1454,1454,1454,1455,1455,1454,1454,1454,1454,1456,1456,1457,1458,1458,1457,1457,1457,1457,1458,1459,1459,1458,1457,1458,1458,1459,1460,1460,1460,1458,1459,1458,1459,1460,1460,1461,1461,1462,1462,1462,1460,1460,1459,1461,1460,1459,1458,1460,1461,1462,1462,1462,1462,1463,1463,1461,1460,1461,1462,1461,1459,1460,1460,1461,1460,1462,1461,1462,1460,1459,1458,1459,1459,1459,1459,1458,1458,1456,1456,1455,1454,1453,1453,1454,1455,1457,1456,1454,1452,1452,1451,1448,1448,1449,1449,1447,1445,1443,1442,1443,1442,1441,1435,1432,1427,1423,1420,1415,1399,1374,1366,1358,1365,1352,1337,1313,1306,1302,1305,1303,1304,1304,1305,1305,1303,1303,1303,1302,1300,1298,1298,1297,1297,1297,1288,1287,1285,1287,1286,1284,1285,1286,1287,1285,1283,1281,1280,1277,1275,1271,1269,1266,1263,1261,1258,1256,1250,1233,1197,1181,1175,1178,1179,1190,1204,1213,1210,1199,1193,1185,1178,1172,1171,1170,1168,1165,1161,1157,1149,1143,1135,1131,1129,1123,1118,1112,1100,1069,1047,1038,1039,1039,1037,1036,1034,1032,1042,1051,1054,1039,1031,1029,1028,1026,1022,1020,1014,1010,1004,999,996,992,991,0
0,1458,1458,1457,1455,1455,1456,1454,1450,1454,1452,1457,1454,1459,1452,1451,1449,1452,1453,1454,1452,1451,1451,1454,1451,1448,1448,1452,1452,1451,1449,1449,1448,1448,1452,1452,1452,1449,1449,1450,1450,1450,1449,1451,1451,1451,1451,1451,1449,1449,1447,1448,1447,1447,1449,1448,1447,1445,1447,1450,1451,1451,1449,1449,1447,1446,1444,1445,1445,1447,1445,1443,1443,1445,1445,1443,1442,1443,1443,1446,1445,1446,1444,1448,1448,1447,1445,1445,1447,1447,1447,1446,1446,1445,1445,1446,1445,1445,1444,1445,1445,1446,1446,1446,1446,1445,1444,1442,1444,1445,1447,1446,1444,1444,1445,1446,1447,1447,1445,1445,1446,1448,1450,1449,1449,1449,1448,1448,1447,1448,1447,1447,1446,1446,1447,1448,1449,1450,1451,1451,1450,1449,1449,1449,1448,1449,1451,1452,1454,1459,1469,1479,1492,1524,0,0,0,0,958,939,926,917,914,909,906,903,899,897,895,892,887,886,885,884,883,881,880,876,873,872,871,870,869,869,869,867,866,866,866,864,864,863,862,860,859,861,863,864,864,862,862,862,863,862,861,861,861,862,861,861,861,861,863,865,867,866,865,864,867,869,870,869,870,870,870,869,869,871,872,873,873,872,874,876,879,880,879,880,879,882,884,887,889,891,892,892,896,898,898,899,903,908,914,917,924,931,943,954,974,0,0,0,1399,1425,1438,1448,1450,1451,1451,1450,1451,1450,1450,1449,1449,1451,1451,1452,1452,1452,1453,1451,1452,1452,1454,1452,1454,1455,1455,1455,1453,1453,1453,1455,1457,1455,1455,1456,1458,1459,1458,1457,1458,1458,1457,1456,1456,1459,1458,1458,1458,1459,1459,1457,1458,1459,1462,1461,1461,1460,1460,1459,1459,1460,1462,1463,1463,1461,1461,1461,1461,1463,1463,1464,1463,1465,1465,1465,1463,1463,1462,1463,1462,1462,1461,1463,1464,1464,1465,1465,1466,1466,1466,1464,1464,1464,1465,1463,1462,1463,1463,1463,1463,1466,1465,1464,1462,1462,1461,1461,1461,1462,1462,1459,1458,1457,1459,1458,1458,1456,1456,1456,1457,1458,1457,1455,1454,1454,1453,1451,1450,1450,1451,1449,1447,1445,1444,1446,1445,1443,1438,1435,1429,1425,1422,1416,1399,1375,1367,1359,1365,1352,1338,1316,1309,1306,1307,1306,1305,1306,1308,1308,1306,1304,1305,1303,1303,1301,1302,1300,1298,1298,1290,1290,1287,1289,1287,1286,1287,1287,1289,1288,1286,1284,1281,1277,1275,1272,1270,1268,1265,1263,1260,1258,1251,1234,1199,1184,1179,1182,1183,1194,1208,1216,1212,1202,1197,1189,1181,1175,1174,1171,1169,1165,1162,1157,1150,1145,1137,1133,1129,1123,1117,1112,1099,1068,1048,1039,1041,1040,1038,1037,1037,1035,1044,1054,1056,1039,1032,1029,1028,1028,1023,1019,1015,1013,1008,1003,1000,997,995,0
0,1455,1455,1455,1449,1449,1448,1449,1448,1453,1455,1458,1455,1460,1457,1455,1452,1448,1445,1446,1447,1449,1449,1451,1450,1445,1445,1448,1451,1451,1449,1448,1448,1447,1449,1448,1449,1446,1448,1451,1450,1450,1447,1449,1448,1448,1447,1447,1448,1450,1449,1448,1446,1445,1446,1445,1445,1444,1446,1449,1450,1451,1448,1449,1447,1446,1444,1443,1443,1444,1446,1446,1445,1445,1443,1442,1440,1442,1442,1445,1443,1444,1443,1447,1447,1446,1445,1447,1448,1448,1447,1447,1446,1445,1445,1445,1444,1444,1445,1445,1444,1443,1444,1444,1443,1442,1442,1442,1442,1443,1444,1445,1445,1444,1445,1446,1446,1445,1444,1444,1445,1447,1449,1449,1447,1447,1446,1447,1446,1447,1448,1448,1445,1445,1446,1448,1449,1449,1450,1450,1449,1449,1450,1450,1449,1448,1449,1451,1455,1461,1471,1481,0,0,0,0,0,963,948,933,924,917,913,906,904,900,898,894,892,890,885,884,883,882,880,878,878,876,872,869,868,868,868,867,865,864,864,864,863,861,861,860,860,858,857,859,861,862,861,860,860,860,860,858,859,860,861,860,860,860,859,860,862,864,865,863,862,860,863,865,866,867,868,868,868,867,868,870,872,871,871,869,871,873,876,876,876,877,878,881,883,884,887,889,891,892,893,894,895,897,901,905,909,913,922,928,938,945,963,0,0,0,1386,1416,1433,1445,1448,1450,1451,1452,1453,1451,1449,1448,1448,1450,1451,1452,1449,1449,1448,1449,1450,1451,1452,1452,1454,1457,1455,1455,1452,1454,1454,1456,1455,1454,1455,1457,1459,1459,1459,1457,1458,1459,1458,1458,1457,1458,1457,1458,1457,1458,1457,1457,1458,1459,1460,1459,1459,1458,1457,1458,1459,1459,1460,1461,1462,1460,1460,1460,1460,1461,1461,1461,1461,1463,1463,1462,1461,1462,1462,1463,1462,1462,1461,1462,1462,1463,1463,1464,1464,1464,1465,1464,1463,1463,1463,1462,1462,1461,1462,1462,1463,1464,1463,1463,1461,1461,1460,1461,1460,1460,1459,1458,1458,1458,1459,1458,1457,1456,1455,1455,1454,1455,1454,1453,1452,1452,1452,1451,1450,1449,1449,1448,1446,1444,1444,1445,1443,1440,1436,1433,1429,1426,1423,1416,1397,1375,1366,1359,1363,1352,1337,1314,1306,1304,1305,1306,1305,1307,1307,1305,1304,1303,1304,1302,1301,1300,1301,1300,1298,1297,1289,1289,1286,1288,1285,1284,1285,1286,1287,1285,1283,1282,1280,1277,1274,1271,1269,1267,1265,1264,1261,1258,1250,1230,1198,1183,1180,1181,1184,1193,1210,1217,1211,1201,1195,1189,1182,1177,1173,1169,1166,1161,1156,1153,1149,1145,1137,1131,1126,1121,1115,1110,1097,1067,1045,1037,1040,1039,1036,1034,1033,1032,1042,1055,1057,1041,1034,1029,1028,1026,1021,1016,1012,1009,1004,1001,999,995,992,0
0,1453,1453,1450,1450,1447,1450,1448,1449,1451,1457,1457,1454,1454,1458,1457,1453,1448,1446,1449,1452,1452,1450,1450,1451,1449,1448,1448,1451,1451,1450,1449,1450,1450,1451,1450,1449,1449,1451,1455,1452,1452,1451,1453,1452,1451,1449,1451,1451,1451,1450,1450,1450,1449,1450,1450,1449,1449,1450,1450,1449,1450,1448,1450,1447,1447,1446,1445,1445,1446,1449,1450,1448,1447,1444,1445,1444,1447,1447,1449,1447,1446,1445,1446,1446,1447,1448,1451,1451,1451,1449,1448,1447,1446,1448,1448,1448,1447,1447,1449,1447,1446,1446,1444,1444,1445,1446,1446,1443,1444,1445,1447,1447,1446,1447,1447,1448,1447,1448,1447,1448,1448,1450,1451,1449,1449,1447,1447,1446,1448,1449,1450,1449,1448,1449,1450,1450,1450,1450,1450,1451,1450,1451,1450,1451,1451,1453,1455,1459,1465,1475,0,0,0,0,0,0,961,946,934,923,916,912,908,905,902,899,895,893,891,886,884,883,881,879,877,878,876,873,870,869,869,869,868,866,866,864,864,863,862,861,860,861,861,860,860,863,864,863,860,860,861,862,860,860,861,863,864,862,861,861,863,865,866,866,863,862,862,863,865,865,866,867,868,869,868,869,869,871,871,872,872,874,876,876,876,876,877,880,882,883,884,886,889,893,893,894,895,898,900,903,906,909,913,921,929,937,944,959,0,0,0,1378,1411,1429,1442,1447,1452,1452,1453,1453,1452,1450,1449,1450,1453,1453,1453,1451,1451,1449,1450,1451,1454,1454,1455,1456,1458,1457,1456,1454,1455,1455,1458,1456,1456,1456,1457,1459,1459,1459,1459,1460,1462,1461,1461,1461,1461,1460,1460,1460,1461,1460,1460,1460,1460,1461,1461,1461,1460,1460,1460,1462,1463,1464,1463,1463,1463,1463,1463,1462,1463,1463,1463,1463,1464,1463,1462,1462,1463,1464,1465,1465,1464,1464,1464,1464,1465,1465,1466,1467,1466,1466,1465,1465,1464,1465,1465,1466,1466,1466,1465,1467,1466,1466,1464,1465,1465,1463,1462,1462,1463,1462,1459,1460,1462,1462,1460,1458,1458,1459,1458,1457,1457,1456,1455,1453,1453,1453,1452,1451,1450,1450,1449,1448,1446,1446,1446,1445,1441,1437,1434,1430,1426,1424,1416,1397,1375,1366,1360,1366,1356,1340,1317,1308,1306,1307,1306,1307,1309,1309,1308,1307,1307,1307,1304,1303,1302,1304,1303,1301,1299,1290,1289,1287,1290,1288,1285,1286,1286,1288,1285,1284,1283,1282,1280,1276,1274,1271,1268,1265,1264,1262,1259,1251,1229,1199,1185,1183,1183,1187,1196,1214,1220,1212,1202,1198,1193,1189,1183,1176,1170,1166,1163,1156,1153,1149,1148,1141,1136,1128,1122,1114,1111,1097,1069,1047,1040,1041,1041,1038,1037,1034,1033,1044,1058,1058,1041,1035,1031,1029,1026,1023,1020,1017,1011,1006,1003,1000,997,993,0
0,1449,1451,1446,1448,1443,1445,1444,1447,1446,1455,1455,1449,1446,1451,1453,1450,1447,1448,1452,1456,1455,1451,1447,1446,1444,1446,1448,1452,1452,1449,1450,1449,1453,1452,1450,1448,1447,1448,1451,1449,1450,1450,1451,1449,1448,1449,1449,1449,1449,1449,1448,1449,1448,1449,1449,1450,1453,1452,1451,1446,1447,1447,1449,1446,1448,1447,1445,1444,1443,1447,1448,1449,1449,1447,1447,1445,1448,1446,1446,1445,1445,1444,1443,1444,1447,1448,1450,1448,1448,1449,1448,1447,1444,1445,1446,1446,1444,1444,1446,1445,1445,1444,1444,1443,1443,1445,1446,1444,1444,1446,1447,1446,1445,1447,1448,1448,1446,1447,1447,1446,1447,1448,1450,1449,1448,1447,1446,1445,1447,1449,1450,1450,1449,1449,1449,1450,1449,1449,1447,1449,1449,1449,1449,1449,1450,1451,1455,1460,1466,1474,0,0,0,0,0,0,951,939,929,919,913,909,905,902,899,896,893,892,890,886,882,881,880,879,878,876,874,871,868,868,867,866,863,861,862,862,863,863,862,861,860,860,860,861,859,860,860,860,858,858,859,859,857,858,859,859,860,859,860,859,860,862,864,865,863,861,861,862,863,863,865,865,865,866,865,866,866,870,870,870,871,873,874,873,874,874,876,877,880,882,883,884,887,891,891,891,892,896,900,904,905,906,909,915,922,930,938,949,968,0,0,1366,1405,1422,1437,1444,1450,1451,1451,1451,1451,1451,1450,1451,1453,1453,1453,1450,1451,1449,1450,1450,1451,1452,1454,1455,1457,1456,1455,1454,1456,1456,1458,1456,1457,1457,1459,1458,1457,1457,1458,1458,1460,1460,1460,1460,1461,1461,1461,1460,1461,1461,1461,1461,1460,1460,1460,1459,1459,1458,1460,1462,1463,1463,1461,1461,1460,1461,1461,1461,1462,1462,1463,1463,1463,1462,1461,1460,1461,1462,1463,1464,1463,1462,1461,1460,1462,1464,1465,1464,1464,1463,1463,1463,1462,1462,1464,1465,1464,1464,1464,1465,1463,1464,1463,1464,1463,1462,1461,1460,1461,1460,1458,1459,1461,1461,1458,1457,1458,1458,1457,1456,1457,1456,1454,1452,1453,1452,1451,1449,1448,1449,1448,1448,1446,1446,1445,1443,1439,1434,1432,1430,1428,1423,1415,1394,1375,1366,1361,1366,1356,1336,1315,1306,1304,1304,1304,1306,1307,1307,1307,1305,1306,1304,1303,1302,1301,1302,1302,1300,1297,1289,1288,1286,1289,1286,1285,1286,1286,1288,1283,1282,1281,1280,1278,1275,1273,1270,1266,1263,1260,1259,1256,1248,1225,1197,1183,1181,1181,1185,1194,1213,1218,1212,1201,1197,1190,1187,1182,1176,1170,1165,1163,1156,1153,1148,1146,1139,1134,1128,1123,1116,1112,1094,1066,1046,1040,1040,1040,1038,1036,1033,1032,1045,1058,1058,1040,1034,1029,1028,1025,1024,1020,1016,1009,1003,1000,996,994,990,0
0,1450,1451,1448,1455,1450,1450,1446,1448,1450,1454,1455,1451,1449,1450,1452,1450,1449,1453,1457,1460,1460,1455,1452,1448,1445,1446,1451,1457,1454,1448,1446,1448,1454,1454,1454,1450,1449,1450,1451,1453,1453,1455,1454,1453,1452,1452,1450,1449,1450,1452,1450,1453,1452,1453,1452,1452,1452,1452,1451,1447,1447,1446,1450,1450,1451,1450,1448,1446,1446,1448,1448,1448,1448,1448,1448,1447,1449,1448,1447,1448,1448,1447,1446,1447,1449,1450,1449,1448,1449,1451,1451,1450,1446,1446,1448,1447,1446,1444,1446,1446,1447,1448,1448,1447,1447,1448,1448,1448,1447,1448,1447,1446,1445,1447,1449,1450,1450,1449,1448,1447,1448,1449,1452,1451,1450,1448,1448,1448,1449,1450,1450,1451,1451,1451,1451,1451,1450,1451,1449,1451,1451,1450,1450,1450,1452,1454,1458,1463,1466,1467,0,0,0,0,0,963,950,938,928,917,912,908,904,902,899,897,895,895,893,887,884,882,882,881,879,877,874,872,870,870,869,866,863,862,864,864,865,865,864,863,862,863,862,862,861,862,861,861,861,860,860,859,858,859,859,858,859,859,860,859,861,862,865,865,865,865,868,867,867,866,866,867,867,869,867,867,867,871,872,872,873,874,876,875,876,878,878,879,881,883,885,887,890,892,892,893,895,899,902,906,907,908,910,915,921,928,936,945,963,0,0,0,1406,1425,1439,1446,1451,1451,1451,1451,1452,1453,1453,1453,1453,1453,1453,1452,1452,1451,1452,1453,1454,1455,1457,1458,1457,1457,1456,1458,1457,1457,1458,1457,1457,1457,1459,1459,1457,1457,1459,1461,1461,1461,1461,1462,1462,1463,1464,1464,1464,1464,1463,1463,1461,1461,1462,1462,1463,1462,1463,1464,1466,1465,1464,1463,1462,1462,1463,1464,1466,1466,1467,1466,1466,1465,1464,1464,1464,1465,1466,1468,1468,1466,1464,1463,1465,1467,1468,1467,1466,1465,1465,1465,1464,1465,1466,1467,1467,1467,1466,1467,1465,1465,1465,1465,1464,1463,1462,1461,1461,1461,1460,1461,1462,1462,1460,1459,1459,1458,1459,1459,1459,1458,1456,1455,1455,1454,1453,1451,1451,1450,1450,1449,1449,1448,1449,1447,1442,1436,1434,1431,1428,1424,1415,1393,1375,1366,1362,1365,1356,1337,1316,1307,1305,1306,1306,1308,1309,1309,1309,1307,1307,1305,1305,1304,1303,1304,1304,1303,1298,1291,1290,1289,1291,1288,1286,1287,1288,1290,1286,1285,1283,1283,1279,1277,1274,1272,1268,1264,1261,1259,1257,1248,1224,1197,1184,1183,1182,1187,1197,1215,1220,1214,1205,1200,1192,1190,1184,1178,1171,1168,1166,1160,1155,1147,1145,1137,1136,1129,1126,1119,1114,1096,1066,1047,1041,1040,1040,1038,1037,1035,1035,1048,1059,1060,1041,1036,1030,1030,1027,1026,1021,1019,1013,1006,1001,996,996,993,0
0,1460,1459,1453,1452,1444,1442,1442,1449,1454,1455,1455,1453,1452,1450,1448,1449,1449,1452,1456,1458,1459,1453,1449,1447,1448,1447,1451,1457,1455,1448,1447,1450,1455,1453,1451,1449,1448,1448,1447,1449,1449,1452,1450,1450,1450,1451,1448,1447,1450,1454,1452,1451,1450,1451,1448,1449,1449,1451,1451,1449,1447,1444,1447,1449,1451,1450,1447,1446,1445,1447,1445,1445,1445,1447,1447,1445,1445,1446,1447,1448,1448,1448,1447,1446,1448,1446,1446,1445,1446,1449,1450,1449,1446,1445,1446,1446,1445,1443,1444,1445,1446,1446,1447,1447,1446,1447,1447,1448,1447,1446,1445,1445,1446,1447,1448,1449,1448,1448,1447,1448,1447,1448,1450,1450,1449,1448,1449,1450,1449,1448,1449,1449,1450,1449,1449,1450,1449,1449,1448,1451,1451,1451,1450,1450,1452,1454,1458,1462,1461,1462,1454,0,0,0,969,949,943,931,922,912,909,904,901,898,895,893,893,893,890,885,883,881,880,879,876,874,871,870,870,870,868,866,864,863,862,863,864,863,862,862,861,861,860,860,860,859,858,858,858,858,857,856,858,858,857,856,857,856,858,858,859,860,862,863,864,864,867,866,865,865,865,865,864,867,867,868,868,869,870,870,870,870,872,872,875,877,878,877,879,882,886,886,887,888,888,890,891,895,899,903,904,905,907,911,916,923,930,940,954,0,0,0,1404,1420,1433,1443,1449,1451,1451,1452,1452,1453,1453,1452,1451,1450,1451,1450,1451,1451,1452,1452,1453,1454,1456,1458,1458,1458,1458,1458,1456,1455,1455,1457,1458,1459,1461,1461,1460,1459,1459,1459,1459,1460,1460,1460,1462,1462,1463,1462,1462,1463,1462,1462,1461,1461,1462,1462,1462,1461,1462,1463,1463,1463,1462,1462,1461,1461,1463,1464,1465,1465,1465,1464,1464,1464,1464,1464,1466,1466,1466,1466,1466,1465,1464,1464,1465,1465,1466,1465,1465,1464,1465,1465,1464,1465,1465,1465,1464,1464,1465,1465,1464,1465,1465,1465,1463,1462,1461,1461,1460,1460,1461,1460,1462,1460,1460,1459,1457,1456,1456,1457,1456,1455,1454,1454,1454,1453,1451,1449,1449,1449,1448,1448,1448,1448,1448,1445,1441,1437,1434,1431,1428,1423,1414,1392,1376,1367,1361,1363,1354,1334,1313,1304,1302,1304,1307,1308,1307,1305,1307,1307,1305,1303,1303,1303,1303,1301,1301,1300,1296,1290,1291,1290,1291,1287,1286,1287,1289,1290,1287,1285,1283,1282,1279,1277,1273,1271,1267,1264,1261,1260,1258,1247,1220,1194,1182,1182,1180,1185,1195,1215,1219,1212,1204,1199,1191,1186,1180,1176,1172,1169,1166,1161,1155,1147,1143,1135,1132,1127,1124,1120,1115,1094,1063,1044,1037,1038,1037,1037,1034,1034,1034,1049,1057,1057,1038,1034,1028,1029,1026,1024,1019,1016,1011,1005,999,994,993,993,0
0,1462,1458,1453,1456,1455,1450,1448,1452,1456,1458,1458,1458,1457,1455,1451,1448,1449,1453,1457,1459,1458,1455,1451,1451,1452,1453,1455,1458,1453,1452,1452,1455,1454,1451,1451,1451,1450,1449,1448,1450,1450,1452,1450,1451,1450,1452,1451,1452,1453,1456,1455,1455,1453,1452,1449,1450,1449,1451,1451,1451,1448,1446,1446,1449,1449,1449,1449,1449,1450,1450,1448,1447,1447,1448,1449,1447,1447,1448,1450,1450,1450,1449,1449,1449,1449,1447,1446,1446,1448,1450,1451,1449,1447,1447,1449,1449,1449,1448,1449,1448,1447,1447,1447,1449,1449,1450,1449,1450,1449,1449,1448,1448,1450,1450,1451,1451,1449,1449,1448,1451,1451,1451,1452,1451,1450,1450,1449,1451,1449,1449,1449,1450,1450,1449,1451,1452,1451,1451,1451,1452,1453,1453,1452,1454,1456,1461,1465,1466,1466,1459,0,0,0,0,955,943,938,931,922,912,907,903,901,899,895,894,894,893,889,883,881,880,879,878,875,874,870,871,869,871,869,869,867,867,866,866,865,865,864,863,862,861,862,862,862,861,860,860,860,859,858,859,859,859,858,859,860,859,859,859,862,862,862,862,864,865,867,866,864,864,865,867,866,868,869,869,869,870,872,873,872,872,873,875,877,879,880,879,881,883,887,888,888,890,890,892,892,896,899,902,904,905,908,912,916,922,929,938,951,971,0,0,1405,1420,1434,1444,1449,1452,1453,1454,1454,1454,1456,1454,1452,1450,1451,1451,1453,1453,1454,1454,1456,1457,1458,1457,1457,1458,1459,1460,1458,1456,1456,1457,1458,1459,1461,1462,1461,1461,1461,1461,1461,1462,1462,1464,1465,1465,1463,1463,1463,1465,1463,1463,1462,1463,1465,1467,1466,1464,1462,1464,1464,1464,1463,1464,1464,1466,1465,1467,1467,1467,1467,1466,1467,1466,1467,1467,1469,1469,1469,1468,1467,1467,1467,1466,1467,1467,1468,1467,1467,1466,1467,1467,1467,1468,1467,1467,1466,1467,1467,1468,1466,1467,1467,1467,1465,1464,1464,1464,1464,1463,1463,1463,1464,1461,1462,1461,1460,1458,1458,1458,1457,1456,1456,1457,1456,1455,1453,1452,1451,1450,1450,1449,1450,1450,1449,1446,1442,1439,1435,1433,1429,1425,1414,1390,1376,1367,1363,1363,1355,1336,1315,1307,1305,1307,1309,1310,1308,1307,1307,1308,1306,1304,1305,1305,1304,1303,1303,1302,1299,1295,1294,1294,1293,1289,1288,1289,1292,1292,1288,1287,1285,1285,1283,1280,1275,1272,1269,1267,1265,1264,1260,1249,1221,1195,1183,1182,1181,1188,1199,1218,1221,1213,1205,1199,1193,1186,1179,1175,1172,1170,1166,1161,1156,1148,1145,1138,1134,1128,1125,1121,1116,1094,1061,1044,1039,1039,1039,1038,1036,1036,1037,1051,1057,1057,1040,1036,1030,1028,1026,1024,1023,1021,1016,1008,1002,998,994,992,0
0,1466,1459,1455,1455,1459,1454,1450,1450,1456,1458,1462,1459,1457,1453,1448,1446,1449,1455,1458,1458,1457,1454,1452,1452,1454,1455,1456,1456,1453,1454,1455,1458,1453,1449,1448,1450,1451,1450,1448,1447,1447,1447,1448,1450,1451,1453,1452,1452,1452,1453,1452,1452,1450,1450,1449,1452,1451,1452,1450,1450,1448,1448,1446,1446,1446,1448,1448,1449,1450,1450,1449,1447,1448,1447,1449,1446,1446,1445,1448,1449,1448,1448,1448,1449,1448,1446,1446,1445,1446,1447,1449,1447,1447,1447,1448,1449,1449,1449,1449,1449,1447,1446,1445,1447,1447,1447,1448,1449,1450,1448,1448,1450,1451,1451,1451,1450,1447,1447,1447,1450,1449,1451,1451,1451,1450,1449,1449,1449,1448,1448,1449,1448,1448,1447,1449,1451,1451,1451,1451,1452,1453,1452,1451,1452,1458,1463,1468,1470,1469,1485,0,0,0,967,950,934,929,922,917,909,904,901,898,896,892,891,890,889,886,882,879,878,876,876,874,874,870,868,867,868,868,868,866,865,862,863,863,863,863,863,861,860,860,860,860,859,859,858,857,857,857,858,857,856,856,856,858,857,857,857,859,860,861,862,862,862,864,863,862,863,864,866,866,867,866,866,867,867,869,871,872,873,872,872,873,875,878,878,879,881,884,885,885,885,885,887,888,893,896,899,901,903,904,906,912,919,925,933,942,959,0,0,1389,1410,1429,1441,1448,1451,1453,1453,1452,1454,1455,1455,1454,1452,1453,1453,1455,1453,1454,1453,1454,1456,1456,1455,1454,1456,1459,1459,1459,1456,1457,1457,1459,1460,1461,1462,1461,1461,1461,1460,1459,1460,1462,1463,1464,1463,1461,1461,1462,1464,1462,1462,1462,1463,1464,1464,1463,1462,1460,1461,1461,1462,1462,1464,1465,1466,1465,1465,1465,1464,1466,1465,1465,1464,1466,1466,1468,1467,1466,1464,1464,1464,1465,1464,1465,1465,1465,1464,1465,1466,1466,1466,1466,1467,1466,1465,1464,1466,1466,1466,1465,1465,1466,1468,1466,1465,1463,1465,1465,1462,1462,1460,1462,1460,1461,1459,1459,1458,1458,1457,1456,1455,1455,1456,1454,1453,1451,1451,1450,1450,1449,1448,1449,1449,1447,1444,1440,1438,1434,1432,1428,1424,1412,1387,1374,1365,1363,1361,1353,1332,1312,1304,1303,1304,1306,1308,1307,1306,1306,1307,1306,1304,1304,1304,1303,1300,1299,1298,1298,1296,1295,1293,1291,1287,1287,1288,1291,1291,1287,1285,1284,1282,1281,1278,1275,1272,1268,1266,1265,1263,1259,1247,1219,1194,1182,1182,1181,1188,1198,1217,1218,1210,1202,1197,1191,1182,1176,1172,1171,1167,1162,1158,1155,1150,1144,1137,1136,1130,1125,1121,1116,1090,1058,1043,1039,1040,1039,1038,1035,1035,1037,1051,1058,1055,1039,1034,1029,1026,1025,1024,1023,1021,1015,1008,1002,998,993,989,0
0,1460,1456,1455,1457,1465,1460,1457,1456,1462,1459,1458,1456,1458,1455,1450,1447,1451,1458,1460,1458,1456,1456,1456,1453,1450,1451,1455,1458,1457,1455,1455,1457,1453,1450,1451,1455,1454,1450,1449,1449,1449,1448,1449,1452,1454,1456,1456,1456,1453,1453,1452,1453,1452,1453,1453,1455,1453,1454,1452,1453,1453,1453,1451,1450,1448,1449,1450,1451,1454,1453,1453,1450,1452,1451,1451,1447,1448,1447,1449,1449,1449,1449,1451,1453,1451,1450,1450,1449,1450,1449,1451,1449,1449,1450,1450,1451,1450,1451,1451,1451,1449,1448,1447,1449,1450,1451,1451,1451,1453,1452,1452,1451,1451,1451,1452,1452,1449,1448,1449,1452,1452,1454,1453,1454,1452,1451,1450,1451,1451,1451,1452,1450,1449,1449,1451,1452,1453,1453,1453,1452,1452,1452,1453,1456,1461,1469,1476,1483,1489,1486,0,0,0,966,946,932,924,922,916,910,905,903,899,896,893,892,890,888,885,881,878,876,875,875,875,874,872,870,868,868,868,868,867,865,863,864,864,865,866,866,864,861,862,863,862,860,860,860,858,858,857,858,855,856,856,857,859,860,860,858,859,860,862,863,863,864,864,866,865,865,864,867,869,871,868,867,868,870,871,872,874,877,876,875,874,876,878,879,880,882,885,886,886,887,887,888,891,894,896,898,901,903,905,908,913,917,923,931,943,957,0,0,1381,1405,1428,1442,1451,1453,1454,1454,1454,1456,1457,1458,1457,1457,1458,1457,1456,1455,1456,1456,1457,1457,1458,1457,1457,1458,1461,1461,1461,1459,1461,1461,1461,1462,1462,1462,1461,1462,1463,1462,1462,1463,1465,1466,1465,1465,1463,1464,1465,1466,1465,1465,1464,1465,1464,1465,1465,1464,1463,1464,1465,1466,1465,1467,1467,1468,1466,1467,1468,1467,1469,1468,1468,1467,1468,1469,1469,1469,1469,1468,1468,1467,1466,1466,1466,1468,1468,1467,1466,1467,1467,1467,1468,1468,1467,1467,1468,1469,1468,1468,1468,1468,1468,1468,1467,1467,1466,1466,1466,1463,1463,1462,1463,1462,1463,1462,1463,1461,1461,1460,1458,1458,1458,1458,1455,1454,1453,1454,1453,1452,1451,1450,1450,1451,1450,1448,1443,1440,1435,1433,1429,1427,1414,1388,1375,1367,1366,1363,1353,1332,1314,1307,1307,1307,1308,1310,1311,1310,1309,1308,1306,1306,1306,1306,1305,1303,1301,1301,1300,1298,1296,1294,1292,1289,1289,1289,1294,1292,1289,1288,1287,1284,1280,1278,1276,1273,1270,1269,1266,1263,1258,1245,1218,1197,1185,1185,1183,1191,1200,1218,1218,1212,1204,1198,1193,1184,1179,1174,1171,1167,1161,1157,1154,1150,1146,1139,1139,1136,1130,1124,1116,1089,1057,1044,1042,1043,1042,1039,1038,1036,1039,1052,1060,1059,1043,1039,1034,1029,1026,1025,1026,1022,1017,1009,1004,999,996,994,0
0,1463,1455,1454,1450,1456,1454,1456,1457,1459,1457,1457,1455,1460,1458,1457,1452,1455,1454,1457,1455,1457,1457,1458,1454,1451,1447,1451,1454,1456,1453,1453,1454,1450,1450,1451,1456,1454,1450,1447,1447,1448,1448,1450,1453,1455,1454,1453,1452,1451,1451,1450,1449,1450,1453,1453,1453,1451,1453,1452,1454,1454,1454,1452,1451,1450,1450,1450,1450,1451,1451,1451,1449,1450,1449,1449,1446,1446,1445,1446,1447,1449,1449,1450,1450,1449,1450,1450,1450,1450,1448,1450,1449,1450,1450,1450,1449,1448,1449,1450,1449,1448,1446,1446,1447,1449,1450,1451,1451,1451,1451,1451,1451,1450,1450,1450,1450,1449,1448,1448,1451,1451,1451,1450,1452,1451,1452,1451,1451,1450,1450,1451,1450,1450,1450,1451,1451,1451,1451,1451,1451,1452,1452,1454,1456,1461,1468,1476,1485,1508,0,0,0,0,956,939,927,921,921,912,907,902,900,896,893,892,890,887,885,882,879,877,875,874,874,874,873,871,868,866,864,865,865,865,863,863,863,863,863,863,863,862,860,861,861,860,857,857,857,857,858,857,856,853,855,855,856,857,859,858,857,857,858,860,862,862,863,863,866,865,864,863,864,867,869,867,867,867,868,869,870,873,875,874,873,872,875,876,877,878,880,882,882,884,885,886,887,889,891,893,894,896,899,901,904,908,914,921,930,940,952,968,0,0,1397,1421,1438,1448,1452,1453,1453,1452,1455,1455,1457,1458,1459,1459,1457,1455,1454,1455,1456,1458,1457,1458,1458,1460,1460,1462,1460,1460,1458,1461,1461,1462,1462,1461,1461,1461,1461,1462,1461,1462,1463,1464,1464,1464,1464,1464,1464,1465,1466,1466,1465,1465,1464,1464,1464,1464,1463,1463,1464,1465,1465,1464,1466,1465,1466,1465,1465,1466,1465,1466,1466,1466,1466,1466,1467,1468,1468,1468,1466,1468,1466,1467,1466,1465,1465,1465,1466,1466,1466,1467,1466,1468,1466,1466,1465,1467,1467,1467,1466,1467,1467,1467,1466,1466,1466,1465,1465,1464,1463,1463,1461,1462,1461,1462,1461,1462,1461,1460,1459,1458,1458,1457,1457,1454,1453,1452,1452,1451,1451,1449,1450,1450,1450,1449,1447,1443,1439,1434,1432,1427,1425,1413,1387,1375,1366,1366,1361,1351,1328,1312,1305,1307,1307,1308,1308,1309,1309,1309,1307,1306,1306,1305,1306,1304,1303,1300,1298,1296,1295,1294,1293,1291,1288,1288,1288,1291,1290,1288,1287,1284,1282,1278,1277,1274,1273,1270,1268,1265,1260,1255,1242,1215,1196,1186,1185,1183,1190,1199,1219,1217,1210,1201,1196,1192,1183,1179,1173,1169,1165,1159,1155,1151,1148,1143,1136,1137,1135,1130,1122,1113,1087,1056,1042,1040,1043,1042,1040,1037,1035,1038,1051,1060,1057,1042,1037,1032,1029,1024,1023,1022,1018,1012,1006,1003,998,995,993,0
0,1457,1451,1453,1451,1455,1452,1461,1459,1460,1456,1454,1454,1459,1460,1464,1461,1458,1455,1458,1459,1460,1457,1457,1456,1452,1448,1450,1453,1456,1454,1455,1455,1452,1451,1452,1456,1453,1451,1449,1451,1454,1453,1454,1456,1456,1454,1455,1456,1456,1453,1451,1451,1451,1453,1453,1453,1451,1452,1452,1455,1456,1455,1454,1453,1452,1452,1453,1452,1453,1451,1451,1450,1450,1450,1450,1449,1451,1451,1451,1450,1451,1452,1452,1452,1451,1451,1451,1452,1452,1451,1452,1450,1451,1452,1452,1451,1450,1450,1451,1451,1451,1448,1448,1451,1453,1454,1453,1452,1452,1453,1453,1453,1451,1451,1452,1452,1452,1451,1452,1451,1452,1451,1451,1454,1454,1455,1453,1453,1452,1452,1453,1453,1454,1453,1453,1453,1452,1451,1451,1453,1454,1456,1458,1461,1465,1469,1474,0,0,0,0,0,957,947,934,928,924,923,912,907,902,901,897,894,894,892,891,887,883,879,877,874,873,873,875,874,872,871,870,868,866,866,867,867,867,865,865,864,864,862,861,861,863,864,863,859,857,858,858,860,858,858,856,858,858,859,859,860,860,859,859,860,863,864,864,865,865,867,865,863,862,863,866,869,869,870,869,871,872,875,877,876,876,875,876,878,879,878,879,880,882,883,887,888,888,888,890,892,893,893,896,898,903,907,911,915,922,932,940,950,967,0,0,1398,1420,1437,1447,1453,1454,1456,1455,1457,1458,1459,1460,1461,1460,1458,1456,1457,1457,1458,1460,1459,1460,1460,1463,1464,1464,1462,1461,1461,1461,1462,1463,1463,1462,1462,1463,1463,1463,1463,1466,1466,1466,1466,1467,1467,1466,1466,1466,1467,1468,1467,1467,1467,1468,1470,1469,1468,1466,1467,1467,1468,1468,1469,1468,1468,1468,1468,1469,1468,1468,1468,1469,1470,1469,1470,1470,1471,1471,1469,1470,1468,1470,1469,1467,1467,1468,1470,1468,1467,1468,1469,1470,1469,1469,1470,1471,1470,1469,1469,1470,1470,1470,1469,1468,1468,1466,1466,1464,1465,1464,1464,1465,1465,1465,1464,1464,1464,1462,1460,1459,1459,1459,1458,1455,1454,1452,1453,1453,1454,1452,1452,1451,1451,1449,1449,1445,1441,1436,1432,1429,1426,1414,1386,1376,1367,1369,1361,1352,1330,1316,1310,1311,1311,1310,1309,1310,1310,1311,1309,1310,1310,1308,1306,1305,1307,1305,1303,1298,1297,1296,1296,1295,1293,1292,1293,1294,1293,1290,1288,1286,1285,1281,1280,1276,1274,1271,1269,1266,1262,1256,1242,1214,1197,1187,1186,1184,1193,1204,1220,1219,1211,1203,1198,1194,1187,1182,1176,1171,1167,1163,1157,1152,1148,1144,1138,1136,1134,1129,1121,1110,1085,1056,1043,1040,1043,1043,1041,1039,1036,1039,1050,1059,1056,1044,1038,1033,1026,1022,1021,1022,1019,1015,1009,1006,1001,998,994,0
0,1449,1449,1452,1455,1456,1455,1456,1462,1457,1454,1452,1453,1459,1461,1468,1464,1460,1452,1453,1456,1458,1458,1457,1457,1455,1450,1449,1453,1455,1455,1453,1451,1449,1450,1452,1453,1452,1453,1454,1454,1455,1454,1456,1455,1454,1451,1454,1453,1454,1452,1451,1450,1450,1452,1452,1452,1451,1450,1450,1451,1452,1451,1450,1451,1452,1453,1454,1454,1453,1450,1449,1449,1448,1449,1449,1450,1451,1449,1448,1447,1450,1450,1450,1450,1449,1449,1448,1450,1450,1450,1449,1448,1449,1449,1450,1449,1450,1451,1450,1449,1449,1448,1450,1451,1452,1451,1451,1451,1451,1451,1451,1452,1450,1450,1450,1451,1451,1451,1451,1449,1448,1449,1450,1452,1453,1454,1452,1451,1451,1451,1452,1452,1453,1453,1452,1451,1451,1451,1451,1453,1455,1457,1458,1460,1463,1465,1468,0,0,0,0,959,950,939,930,924,919,916,908,905,900,899,896,893,893,892,891,887,882,878,875,874,873,873,873,873,870,869,868,866,863,862,864,865,865,864,863,861,861,860,859,857,859,861,861,858,857,857,859,859,856,854,854,857,857,858,855,857,856,858,857,858,860,862,863,864,864,864,862,861,861,862,863,865,867,869,868,868,870,873,875,874,873,872,873,875,876,877,877,877,878,881,885,886,884,886,887,889,890,891,894,895,899,901,906,913,921,929,933,941,953,0,0,1394,1418,1433,1444,1451,1453,1457,1456,1458,1457,1458,1459,1458,1457,1456,1457,1456,1457,1457,1460,1459,1460,1460,1462,1462,1463,1462,1462,1461,1460,1460,1461,1461,1461,1462,1462,1462,1462,1463,1465,1465,1465,1465,1466,1465,1463,1464,1466,1467,1467,1467,1467,1466,1467,1468,1468,1466,1464,1465,1465,1467,1468,1468,1467,1466,1467,1467,1467,1467,1467,1466,1467,1468,1469,1468,1468,1468,1467,1466,1466,1468,1470,1470,1467,1467,1468,1470,1469,1467,1468,1469,1469,1468,1468,1469,1469,1468,1468,1468,1469,1469,1469,1468,1467,1466,1464,1464,1463,1463,1462,1463,1463,1463,1462,1462,1462,1462,1460,1459,1458,1459,1458,1458,1454,1454,1451,1451,1451,1452,1451,1451,1450,1449,1448,1446,1443,1439,1434,1430,1428,1425,1413,1384,1376,1366,1369,1357,1349,1326,1313,1308,1310,1311,1310,1309,1308,1308,1308,1309,1309,1310,1309,1306,1305,1306,1306,1302,1296,1293,1293,1294,1293,1292,1291,1292,1291,1291,1288,1286,1284,1283,1280,1279,1275,1273,1269,1267,1264,1261,1256,1241,1211,1194,1185,1185,1183,1192,1204,1219,1217,1208,1200,1196,1192,1187,1181,1175,1171,1165,1162,1156,1152,1147,1143,1137,1134,1132,1126,1118,1107,1080,1055,1042,1040,1041,1040,1039,1037,1035,1039,1048,1056,1051,1041,1034,1027,1022,1019,1019,1020,1020,1016,1009,1004,999,995,989,0
0,1451,1453,1457,1463,1464,1464,1462,1461,1459,1457,1453,1453,1459,1462,1469,1465,1462,1456,1455,1458,1460,1461,1457,1458,1455,1455,1454,1459,1460,1460,1459,1456,1455,1455,1456,1455,1455,1453,1456,1456,1457,1456,1457,1456,1457,1457,1459,1456,1456,1454,1453,1452,1450,1452,1452,1454,1455,1452,1452,1451,1452,1450,1451,1451,1454,1453,1456,1456,1456,1451,1451,1451,1452,1451,1451,1453,1455,1454,1449,1449,1450,1452,1452,1453,1452,1452,1450,1452,1451,1452,1450,1449,1450,1451,1450,1450,1450,1451,1451,1450,1450,1450,1452,1453,1453,1453,1454,1454,1454,1452,1452,1452,1452,1452,1451,1451,1452,1454,1454,1452,1451,1451,1453,1453,1453,1453,1453,1453,1454,1456,1456,1456,1456,1455,1454,1452,1453,1454,1454,1455,1457,1459,1461,1462,1466,1468,1475,0,0,0,0,960,941,932,927,923,918,911,907,904,901,899,897,896,896,895,892,888,884,880,878,875,874,873,874,874,872,872,870,868,864,863,864,865,865,865,865,861,861,859,859,859,861,863,863,860,858,857,858,858,856,855,855,857,857,860,858,858,857,858,859,860,861,862,863,863,863,863,862,862,862,863,864,866,869,870,870,870,871,873,873,873,874,874,874,875,877,879,880,880,880,883,886,887,885,886,887,889,891,892,896,897,901,902,907,912,920,927,933,937,948,0,0,0,1414,1433,1446,1454,1457,1459,1458,1459,1458,1459,1460,1459,1459,1459,1461,1459,1459,1459,1463,1463,1462,1462,1463,1464,1463,1463,1464,1463,1462,1462,1462,1463,1463,1465,1465,1465,1465,1467,1469,1468,1468,1468,1468,1467,1466,1468,1467,1468,1466,1467,1467,1469,1469,1470,1470,1468,1467,1466,1466,1469,1470,1470,1469,1469,1470,1469,1469,1471,1471,1470,1471,1471,1472,1471,1470,1470,1470,1470,1469,1470,1471,1473,1471,1472,1472,1473,1471,1470,1469,1470,1470,1471,1471,1472,1471,1471,1470,1470,1470,1471,1471,1470,1469,1467,1466,1466,1465,1466,1464,1465,1464,1464,1464,1464,1464,1463,1462,1461,1460,1461,1461,1460,1457,1455,1453,1453,1454,1455,1454,1452,1451,1451,1450,1447,1443,1441,1437,1433,1430,1427,1414,1385,1378,1369,1372,1359,1350,1328,1316,1311,1312,1313,1312,1312,1311,1309,1309,1310,1312,1311,1311,1309,1308,1307,1306,1304,1299,1295,1294,1295,1296,1293,1292,1292,1294,1294,1293,1290,1287,1284,1282,1281,1278,1275,1271,1269,1266,1261,1257,1240,1212,1195,1188,1187,1186,1195,1208,1221,1218,1209,1202,1198,1195,1191,1184,1177,1173,1167,1164,1158,1152,1148,1143,1139,1136,1132,1127,1119,1109,1081,1056,1045,1044,1044,1040,1038,1037,1036,1042,1053,1061,1052,1042,1038,1031,1026,1022,1020,1022,1022,1019,1010,1005,999,995,989,0
0,1452,1457,1461,1465,1465,1465,1455,1451,1450,1456,1455,1453,1457,1461,1468,1463,1462,1457,1457,1457,1458,1458,1454,1456,1454,1458,1458,1462,1460,1457,1456,1456,1456,1456,1458,1457,1455,1451,1452,1451,1454,1451,1454,1453,1458,1459,1457,1452,1452,1452,1452,1450,1449,1451,1450,1451,1452,1453,1453,1450,1449,1448,1450,1451,1453,1451,1453,1453,1453,1450,1451,1452,1452,1451,1450,1450,1451,1450,1447,1448,1448,1449,1449,1451,1451,1451,1449,1450,1450,1451,1449,1449,1450,1449,1448,1448,1448,1450,1449,1449,1448,1451,1450,1449,1449,1451,1453,1453,1452,1450,1450,1451,1452,1450,1450,1449,1451,1452,1453,1452,1450,1451,1451,1451,1451,1452,1452,1452,1453,1455,1455,1455,1454,1453,1452,1451,1452,1453,1454,1454,1454,1456,1460,1464,1470,1474,0,0,0,0,971,953,935,925,921,918,912,906,903,901,898,896,895,893,891,890,887,884,880,878,876,876,874,873,872,872,871,869,866,863,861,861,862,863,864,865,864,861,858,858,859,860,859,860,859,857,856,854,856,856,855,854,852,854,855,859,858,857,855,858,857,858,858,859,860,861,862,861,863,864,864,863,863,863,865,867,868,868,868,869,869,869,871,872,872,872,872,875,877,879,879,881,882,883,884,885,886,886,888,889,892,895,899,900,903,910,917,924,930,933,942,960,0,0,1405,1424,1441,1452,1458,1461,1459,1460,1458,1459,1459,1457,1458,1459,1462,1460,1460,1461,1464,1464,1463,1462,1462,1462,1461,1461,1462,1463,1463,1463,1463,1462,1463,1463,1464,1464,1465,1467,1468,1467,1467,1467,1467,1466,1465,1466,1466,1466,1465,1466,1466,1467,1467,1467,1468,1467,1467,1466,1466,1467,1468,1468,1468,1469,1470,1469,1467,1467,1467,1468,1468,1468,1469,1468,1468,1468,1468,1468,1468,1469,1469,1471,1470,1470,1470,1470,1469,1469,1469,1469,1470,1470,1471,1471,1470,1469,1469,1468,1469,1468,1468,1467,1467,1465,1465,1466,1465,1465,1465,1465,1463,1462,1462,1462,1462,1461,1461,1460,1460,1459,1460,1459,1457,1455,1453,1453,1453,1453,1452,1450,1450,1451,1450,1448,1443,1440,1438,1434,1429,1426,1414,1384,1376,1367,1371,1358,1348,1325,1314,1308,1310,1311,1312,1313,1311,1309,1307,1310,1309,1309,1310,1309,1308,1303,1302,1301,1298,1294,1294,1294,1295,1292,1291,1291,1293,1294,1292,1289,1285,1283,1281,1281,1277,1273,1270,1266,1262,1259,1255,1238,1209,1194,1187,1188,1186,1195,1207,1221,1217,1208,1199,1196,1191,1189,1183,1177,1172,1164,1163,1159,1153,1147,1140,1137,1134,1131,1127,1120,1109,1079,1054,1044,1044,1043,1039,1036,1035,1034,1042,1054,1060,1049,1039,1036,1032,1027,1022,1020,1020,1020,1015,1009,1003,999,995,990,0
0,1459,1467,1467,1468,1467,1466,1453,1446,1450,1457,1458,1458,1460,1464,1467,1464,1464,1462,1465,1462,1460,1455,1454,1458,1460,1463,1462,1463,1462,1458,1460,1460,1460,1459,1459,1457,1455,1452,1453,1452,1455,1455,1456,1456,1461,1462,1459,1455,1453,1452,1452,1451,1452,1453,1453,1452,1452,1454,1456,1455,1453,1451,1453,1453,1454,1450,1451,1452,1454,1453,1453,1453,1452,1451,1450,1453,1454,1454,1452,1452,1452,1451,1451,1453,1455,1453,1451,1451,1453,1453,1452,1451,1451,1451,1449,1449,1450,1452,1451,1451,1450,1452,1451,1451,1451,1452,1453,1454,1453,1453,1453,1454,1454,1453,1453,1452,1453,1454,1455,1455,1455,1453,1453,1452,1453,1454,1453,1453,1454,1456,1456,1456,1456,1455,1455,1454,1453,1454,1455,1456,1454,1458,1465,1473,1478,1474,0,0,0,969,958,946,930,922,919,917,912,907,902,900,898,897,895,892,890,889,887,884,881,879,879,876,875,874,874,874,873,870,868,866,864,863,863,864,864,864,863,862,860,859,861,863,862,861,859,856,855,854,855,857,858,858,856,855,856,861,861,859,858,859,861,862,861,861,862,861,862,862,865,867,867,866,865,865,865,867,868,870,871,871,870,870,871,874,874,874,873,875,878,880,881,881,882,883,885,885,886,887,890,891,894,897,901,904,906,910,916,925,932,935,944,959,0,0,1391,1414,1435,1451,1458,1462,1462,1463,1461,1462,1461,1460,1460,1462,1464,1463,1462,1463,1464,1466,1466,1465,1464,1464,1463,1462,1462,1464,1466,1466,1466,1464,1464,1464,1465,1466,1467,1467,1469,1468,1469,1468,1468,1468,1467,1468,1466,1468,1467,1469,1468,1470,1469,1470,1470,1470,1470,1469,1468,1469,1471,1471,1473,1474,1473,1471,1468,1468,1469,1471,1471,1470,1470,1471,1470,1471,1471,1471,1470,1471,1471,1471,1471,1472,1472,1472,1471,1471,1471,1472,1473,1474,1474,1473,1472,1471,1470,1470,1470,1469,1470,1470,1471,1469,1469,1468,1468,1467,1467,1466,1465,1464,1466,1466,1466,1463,1463,1462,1463,1461,1462,1461,1460,1456,1455,1457,1457,1455,1453,1453,1452,1452,1451,1450,1445,1443,1441,1436,1430,1427,1415,1384,1375,1367,1373,1360,1349,1328,1318,1313,1314,1312,1313,1312,1312,1311,1311,1312,1312,1310,1310,1309,1308,1304,1302,1302,1300,1298,1298,1298,1299,1296,1296,1296,1297,1297,1294,1291,1287,1286,1284,1284,1279,1276,1271,1268,1264,1261,1255,1237,1210,1197,1190,1190,1188,1196,1209,1221,1217,1207,1201,1197,1191,1188,1184,1179,1172,1166,1165,1161,1154,1148,1143,1142,1137,1131,1127,1121,1110,1079,1056,1046,1047,1046,1042,1039,1037,1037,1046,1057,1061,1050,1041,1039,1036,1031,1026,1023,1021,1018,1013,1011,1007,1003,996,992,0
0,1458,1467,1470,1466,1463,1457,1450,1446,1452,1456,1454,1454,1457,1460,1461,1458,1459,1458,1463,1463,1463,1456,1456,1459,1462,1461,1458,1459,1461,1457,1457,1455,1457,1454,1454,1455,1454,1452,1451,1452,1454,1455,1456,1456,1458,1458,1456,1456,1452,1449,1448,1450,1454,1455,1455,1454,1453,1454,1454,1454,1452,1453,1454,1454,1452,1450,1450,1451,1451,1452,1452,1452,1450,1448,1448,1449,1451,1450,1450,1452,1452,1451,1450,1452,1453,1452,1448,1450,1451,1452,1451,1451,1452,1451,1450,1450,1451,1452,1450,1451,1451,1453,1451,1450,1449,1450,1452,1451,1451,1452,1451,1452,1452,1452,1452,1451,1452,1451,1453,1454,1454,1454,1454,1453,1454,1454,1453,1453,1453,1454,1453,1453,1452,1453,1453,1453,1452,1453,1454,1456,1455,1457,1462,1474,1484,0,0,0,963,952,944,934,923,916,912,911,907,905,900,898,894,893,891,888,887,887,885,882,878,877,876,875,873,873,873,873,871,867,865,864,863,863,861,862,861,861,859,859,858,859,859,861,860,858,857,856,854,854,855,856,856,856,856,855,856,860,860,858,857,860,861,861,859,859,860,861,861,862,864,865,866,865,864,863,864,866,867,868,869,871,871,870,870,871,871,872,872,875,875,877,878,879,879,879,881,882,883,887,890,891,891,896,899,903,904,908,912,920,927,933,941,952,0,0,0,1388,1422,1445,1456,1460,1461,1462,1460,1460,1460,1460,1461,1462,1464,1463,1462,1462,1462,1463,1464,1464,1464,1464,1463,1462,1462,1464,1466,1467,1467,1464,1463,1463,1465,1467,1467,1466,1467,1467,1468,1467,1466,1465,1465,1466,1465,1467,1469,1471,1470,1468,1467,1468,1469,1469,1469,1468,1469,1470,1471,1471,1471,1472,1471,1470,1467,1467,1466,1468,1466,1468,1468,1470,1469,1469,1470,1469,1468,1469,1469,1469,1468,1470,1471,1471,1471,1470,1470,1470,1472,1473,1473,1472,1471,1469,1469,1469,1470,1470,1469,1469,1470,1470,1469,1468,1467,1467,1467,1465,1464,1463,1464,1463,1464,1462,1462,1460,1459,1458,1460,1460,1459,1455,1455,1456,1455,1453,1453,1453,1452,1451,1450,1449,1444,1441,1437,1431,1427,1424,1413,1381,1373,1364,1372,1357,1347,1325,1317,1310,1313,1311,1312,1310,1311,1311,1311,1311,1310,1309,1308,1308,1306,1305,1304,1303,1299,1297,1296,1297,1297,1297,1297,1297,1296,1295,1291,1289,1286,1286,1284,1282,1278,1275,1271,1269,1266,1262,1253,1233,1206,1194,1188,1189,1187,1194,1209,1220,1215,1204,1198,1194,1188,1186,1181,1178,1171,1166,1163,1160,1152,1146,1143,1142,1137,1131,1125,1118,1105,1076,1054,1045,1045,1045,1043,1038,1036,1035,1046,1055,1059,1047,1040,1038,1034,1029,1025,1023,1019,1016,1011,1010,1005,1001,995,993,0
0,1458,1465,1468,1467,1466,1463,1461,1456,1458,1459,1458,1458,1460,1463,1462,1458,1457,1458,1465,1463,1464,1458,1458,1458,1458,1458,1455,1458,1462,1461,1461,1460,1460,1456,1455,1457,1458,1457,1456,1456,1457,1458,1457,1458,1457,1459,1457,1459,1456,1453,1452,1455,1459,1458,1458,1457,1456,1456,1455,1457,1457,1458,1456,1455,1455,1454,1453,1453,1454,1454,1454,1454,1454,1453,1453,1454,1454,1453,1451,1452,1453,1453,1453,1454,1455,1454,1452,1453,1453,1453,1452,1453,1453,1453,1452,1453,1455,1455,1455,1454,1454,1453,1452,1451,1452,1453,1453,1452,1453,1453,1452,1452,1453,1455,1454,1453,1453,1453,1453,1456,1457,1457,1455,1454,1454,1455,1456,1456,1455,1455,1453,1454,1454,1456,1455,1456,1454,1455,1455,1457,1456,1457,1457,1463,0,0,0,973,962,951,942,931,920,915,911,909,904,902,899,898,894,892,891,891,890,889,887,883,879,877,877,876,876,874,875,873,872,867,866,865,865,865,862,863,861,860,859,858,860,859,859,858,860,861,859,857,855,857,858,858,856,856,857,858,858,861,860,860,860,861,861,862,861,860,861,861,862,863,864,865,866,866,865,866,867,869,868,869,870,872,872,872,873,873,872,873,873,875,875,876,878,878,879,881,883,883,883,887,891,893,893,895,898,901,903,907,911,919,926,932,940,950,975,0,0,0,1396,1436,1448,1455,1459,1462,1461,1462,1462,1463,1464,1465,1466,1465,1463,1463,1463,1464,1465,1467,1468,1468,1467,1466,1466,1467,1467,1468,1468,1467,1466,1467,1467,1468,1469,1469,1469,1469,1470,1469,1467,1467,1468,1469,1468,1468,1470,1472,1471,1471,1470,1471,1471,1470,1470,1470,1472,1473,1473,1472,1471,1472,1472,1472,1469,1471,1471,1472,1469,1469,1471,1473,1472,1473,1472,1472,1471,1472,1472,1472,1472,1472,1474,1475,1474,1473,1472,1473,1473,1474,1474,1474,1473,1472,1472,1472,1473,1473,1472,1472,1472,1472,1471,1470,1469,1469,1469,1467,1467,1466,1468,1466,1465,1463,1463,1462,1462,1461,1463,1463,1461,1458,1458,1459,1458,1457,1456,1456,1453,1452,1450,1450,1446,1443,1439,1432,1427,1424,1413,1383,1374,1365,1373,1358,1347,1326,1320,1314,1315,1313,1314,1312,1312,1313,1313,1313,1311,1310,1309,1308,1308,1308,1307,1304,1299,1298,1298,1299,1298,1297,1297,1298,1299,1298,1294,1291,1288,1288,1286,1284,1281,1278,1276,1272,1269,1264,1255,1233,1207,1195,1190,1191,1190,1198,1214,1224,1217,1204,1199,1195,1189,1186,1180,1178,1172,1170,1165,1161,1154,1148,1144,1143,1139,1132,1124,1117,1104,1077,1056,1047,1047,1047,1044,1040,1038,1037,1049,1059,1064,1049,1043,1040,1037,1032,1028,1026,1022,1016,1012,1009,1006,1000,994,990,0
0,1460,1464,1466,1466,1464,1461,1463,1460,1460,1459,1460,1459,1459,1461,1463,1457,1453,1454,1459,1460,1461,1461,1461,1461,1458,1458,1453,1458,1460,1463,1458,1458,1458,1455,1454,1454,1457,1456,1455,1454,1454,1455,1457,1458,1457,1458,1456,1457,1454,1453,1453,1456,1457,1454,1454,1455,1455,1455,1452,1453,1454,1455,1455,1455,1455,1454,1453,1452,1451,1452,1454,1454,1455,1454,1454,1453,1452,1451,1450,1451,1452,1452,1451,1451,1451,1453,1453,1455,1452,1452,1452,1452,1452,1451,1453,1453,1454,1453,1453,1452,1452,1452,1452,1451,1451,1452,1452,1451,1451,1451,1450,1450,1452,1453,1452,1451,1452,1452,1453,1454,1454,1455,1455,1454,1453,1453,1454,1453,1452,1452,1452,1452,1453,1455,1456,1456,1456,1457,1454,1452,0,0,0,0,0,0,991,966,954,944,936,925,915,911,906,904,899,898,897,895,892,889,888,888,887,886,883,880,876,872,873,874,875,874,873,870,868,865,865,863,862,863,862,862,861,861,859,857,857,857,855,856,857,860,858,857,855,858,858,857,854,854,856,858,858,859,859,860,860,860,860,860,859,859,859,860,859,860,861,862,862,863,864,864,865,866,865,866,868,872,872,871,871,871,870,870,871,872,872,875,876,878,878,881,881,881,881,885,888,890,890,891,894,897,899,904,908,915,921,927,935,946,964,0,0,0,0,0,1428,1442,1449,1453,1458,1461,1462,1461,1463,1464,1466,1464,1464,1464,1463,1462,1463,1465,1467,1467,1465,1465,1466,1467,1466,1466,1466,1466,1467,1468,1468,1467,1468,1469,1468,1467,1467,1468,1468,1468,1468,1469,1468,1468,1469,1470,1470,1471,1470,1471,1470,1468,1468,1469,1469,1471,1470,1470,1467,1467,1469,1470,1469,1471,1471,1472,1469,1470,1471,1473,1472,1471,1470,1470,1470,1472,1472,1471,1471,1471,1472,1472,1471,1470,1471,1472,1471,1471,1472,1472,1472,1472,1473,1473,1472,1472,1471,1471,1469,1470,1468,1469,1468,1468,1468,1467,1466,1466,1466,1465,1464,1463,1463,1462,1460,1459,1461,1461,1459,1456,1456,1456,1455,1455,1455,1455,1452,1450,1449,1449,1447,1441,1438,1432,1428,1423,1411,1383,1374,1364,1371,1358,1345,1323,1316,1310,1311,1310,1312,1311,1312,1313,1312,1311,1309,1310,1309,1309,1307,1307,1305,1302,1298,1296,1296,1296,1295,1294,1295,1296,1299,1296,1293,1289,1287,1286,1285,1282,1279,1276,1274,1271,1268,1262,1253,1231,1205,1193,1189,1190,1190,1198,1214,1223,1216,1203,1196,1192,1187,1183,1177,1175,1171,1168,1163,1159,1154,1147,1142,1139,1136,1131,1124,1118,1101,1073,1054,1046,1044,1044,1040,1038,1037,1035,1047,1057,1064,1049,1044,1040,1036,1032,1027,1024,1022,1017,1013,1008,1004,1000,994,992,0
0,1464,1464,1466,1467,1468,1464,1464,1462,1461,1457,1461,1460,1463,1463,1467,1462,1458,1456,1457,1458,1459,1462,1463,1464,1460,1460,1458,1461,1461,1461,1459,1461,1461,1458,1455,1454,1460,1460,1459,1455,1455,1456,1459,1460,1460,1460,1457,1456,1455,1458,1460,1460,1458,1455,1454,1454,1455,1456,1454,1454,1456,1455,1455,1455,1458,1456,1454,1453,1453,1453,1455,1456,1456,1456,1457,1456,1455,1456,1454,1455,1455,1455,1453,1453,1453,1454,1456,1457,1455,1455,1454,1454,1452,1452,1454,1454,1455,1455,1456,1454,1454,1453,1455,1454,1453,1452,1452,1453,1454,1455,1453,1454,1455,1457,1455,1455,1455,1455,1455,1455,1455,1455,1456,1455,1455,1454,1455,1454,1453,1453,1454,1456,1459,1462,1463,1463,1461,0,0,0,0,1033,1022,1016,1007,993,974,958,948,942,933,924,916,913,907,902,900,899,898,896,893,890,889,888,888,886,884,880,877,873,873,875,878,877,875,872,869,866,866,865,865,864,864,864,864,862,860,857,856,856,856,856,856,859,858,857,856,858,858,858,855,854,857,859,859,858,859,860,862,860,860,861,861,860,859,859,860,860,861,863,864,865,865,864,866,866,868,869,871,872,872,873,872,872,871,873,873,873,874,876,878,879,880,882,884,883,883,885,888,888,889,890,893,896,900,905,909,913,918,927,935,945,957,0,0,0,0,0,0,0,0,1440,1450,1456,1460,1460,1463,1466,1467,1465,1465,1467,1468,1466,1465,1467,1469,1468,1466,1466,1467,1468,1469,1469,1467,1467,1468,1470,1468,1467,1469,1470,1469,1468,1468,1470,1471,1472,1471,1471,1472,1471,1471,1471,1472,1473,1473,1473,1471,1470,1470,1472,1473,1473,1472,1472,1471,1471,1471,1472,1473,1474,1475,1476,1475,1473,1473,1473,1473,1473,1473,1474,1474,1476,1475,1475,1474,1473,1474,1473,1473,1473,1475,1476,1474,1473,1473,1474,1473,1475,1475,1476,1475,1474,1473,1473,1472,1470,1469,1470,1470,1469,1468,1468,1469,1469,1470,1469,1467,1466,1465,1465,1463,1462,1461,1461,1460,1458,1457,1457,1457,1458,1458,1457,1454,1452,1451,1452,1449,1444,1440,1435,1432,1426,1412,1387,1377,1368,1374,1361,1347,1325,1317,1312,1313,1312,1314,1314,1315,1316,1315,1314,1311,1312,1312,1312,1309,1307,1305,1303,1301,1300,1299,1299,1298,1295,1297,1297,1301,1298,1296,1292,1288,1287,1286,1284,1281,1279,1277,1273,1271,1265,1257,1234,1209,1195,1192,1191,1191,1199,1215,1224,1216,1205,1198,1194,1187,1184,1179,1179,1173,1167,1161,1159,1156,1149,1143,1138,1135,1131,1127,1121,1102,1072,1054,1047,1045,1044,1042,1039,1039,1038,1050,1061,1066,1052,1047,1042,1038,1033,1029,1025,1023,1019,1015,1010,1007,1003,998,994,0
0,1466,1467,1466,1469,1466,1461,1458,1460,1462,1458,1461,1461,1465,1462,1464,1458,1454,1451,1456,1459,1460,1462,1464,1466,1462,1459,1454,1455,1457,1459,1458,1461,1461,1459,1457,1455,1459,1457,1456,1454,1454,1458,1461,1461,1459,1457,1455,1452,1453,1457,1459,1458,1456,1454,1454,1456,1456,1455,1453,1452,1452,1451,1453,1454,1457,1456,1455,1454,1452,1452,1453,1453,1453,1454,1454,1453,1453,1454,1454,1455,1455,1454,1453,1452,1453,1453,1454,1454,1452,1453,1454,1453,1453,1453,1454,1452,1453,1453,1454,1453,1452,1452,1454,1454,1454,1451,1450,1451,1454,1455,1453,1453,1454,1456,1455,1454,1454,1456,1457,1455,1455,1455,1458,1456,1455,1453,1453,1453,1452,1454,1457,1461,1465,0,0,0,0,0,1016,1003,994,990,986,978,968,958,951,942,935,927,922,917,913,909,904,900,899,899,898,894,890,887,886,885,886,886,884,880,875,872,871,873,876,875,873,871,868,867,866,865,863,860,861,861,861,858,857,854,854,855,855,855,854,855,855,855,854,854,854,855,854,854,855,856,857,856,856,858,860,859,860,859,860,859,859,859,859,859,859,861,862,864,865,864,865,865,867,868,869,870,869,870,869,869,869,870,871,873,873,876,878,880,879,880,880,880,882,884,887,886,887,887,891,894,899,902,906,909,912,920,928,936,945,962,0,0,993,991,995,1002,1014,0,0,1435,1446,1450,1457,1463,1465,1464,1464,1465,1465,1463,1463,1465,1467,1466,1465,1464,1466,1467,1468,1467,1466,1466,1467,1468,1468,1466,1467,1468,1467,1467,1467,1469,1471,1471,1472,1471,1472,1472,1472,1471,1472,1472,1471,1472,1471,1469,1470,1471,1472,1471,1471,1471,1471,1470,1470,1471,1473,1474,1474,1474,1473,1472,1473,1472,1471,1471,1472,1473,1474,1475,1475,1473,1472,1472,1473,1471,1472,1473,1475,1474,1473,1473,1473,1474,1472,1473,1473,1474,1473,1472,1472,1471,1470,1470,1469,1468,1468,1467,1467,1467,1468,1468,1467,1467,1466,1465,1463,1463,1462,1460,1460,1459,1458,1456,1456,1455,1456,1456,1457,1455,1453,1452,1451,1451,1447,1441,1437,1434,1431,1425,1410,1385,1377,1367,1373,1360,1346,1323,1315,1310,1311,1310,1312,1312,1313,1314,1314,1313,1312,1313,1313,1312,1309,1306,1304,1303,1300,1299,1298,1297,1296,1295,1297,1298,1300,1298,1295,1292,1288,1286,1284,1283,1280,1278,1276,1273,1269,1264,1255,1232,1208,1195,1191,1190,1190,1198,1215,1222,1213,1202,1197,1193,1186,1183,1179,1178,1172,1165,1161,1158,1156,1147,1143,1137,1134,1129,1126,1122,1101,1069,1052,1045,1044,1041,1039,1037,1037,1036,1048,1060,1065,1050,1045,1041,1035,1030,1026,1021,1017,1016,1014,1009,1004,1002,998,995,0
